ply
format ascii 1.0
element vertex 649
property float x
property float y
property float z
property uchar red
property uchar green
property uchar blue
end_header
6.5620722770690918 -0.675701260566711426 1.84475588798522949 255 255 255
6.56303834915161133 -0.67567908763885498 1.84455513954162598 255 255 255
6.56400203704833984 -0.675655245780944824 1.84433948993682861 255 255 255
6.56496572494506836 -0.675631403923034668 1.84412384033203125 255 255 255
6.56592988967895508 -0.675607562065124512 1.84390795230865479 255 255 255
6.56689357757568359 -0.675583243370056152 1.8436882495880127 255 255 255
6.56785678863525391 -0.675558745861053467 1.84346675872802734 255 255 255
6.56882095336914062 -0.675534248352050781 1.84324526786804199 255 255 255
6.56977176666259766 -0.67550194263458252 1.84295308589935303 248 248 248
6.57071971893310547 -0.675467729568481445 1.84264302253723145 240 240 240
6.57166576385498047 -0.675431966781616211 1.84232008457183838 236 236 236
6.57259273529052734 -0.675385117530822754 1.8418964147567749 228 228 228
6.57352066040039062 -0.675338268280029297 1.84147250652313232 229 228 229
6.57444953918457031 -0.67529141902923584 1.84104824066162109 228 228 228
6.57537937164306641 -0.675244987010955811 1.84062850475311279 228 227 228
6.57631015777587891 -0.675198793411254883 1.8402104377746582 229 228 229
6.57723760604858398 -0.675150036811828613 1.83976936340332031 228 227 228
6.57812118530273438 -0.675074458122253418 1.83908605575561523 224 223 224
6.57900571823120117 -0.6749991774559021 1.83840501308441162 227 226 227
6.5798954963684082 -0.674926280975341797 1.83774542808532715 226 225 226
6.58078622817993164 -0.674853265285491943 1.83708512783050537 224 223 224
6.58164119720458984 -0.674757957458496094 1.83622324466705322 226 226 226
6.58239984512329102 -0.674602746963500977 1.83481955528259277 226 225 225
6.5831599235534668 -0.674447298049926758 1.833412766456604 224 224 224
6.58386754989624023 -0.674257874488830566 1.83169996738433838 225 224 225
6.57984828948974609 -0.671136915683746338 1.80346941947937012 226 225 226
6.58062124252319336 -0.67097240686416626 1.80198109149932861 225 224 225
6.58148908615112305 -0.67086559534072876 1.80101490020751953 225 225 225
6.58236122131347656 -0.670760691165924072 1.80006623268127441 226 225 226
6.58323478698730469 -0.670655608177185059 1.79911553859710693 225 224 225
6.58410453796386719 -0.670547246932983398 1.79813516139984131 226 225 226
6.58505153656005859 -0.670487165451049805 1.79759228229522705 226 225 226
6.58600664138793945 -0.670431733131408691 1.79709076881408691 225 224 225
6.58696269989013672 -0.670376241207122803 1.79658877849578857 226 225 225
6.58791923522949219 -0.670320749282836914 1.79608666896820068 226 225 226
6.58887624740600586 -0.67026519775390625 1.79558396339416504 226 225 226
6.58983659744262695 -0.67021101713180542 1.79509401321411133 226 226 226
6.59080266952514648 -0.670160174369812012 1.79463434219360352 227 227 227
6.59176921844482422 -0.670109331607818604 1.7941744327545166 226 226 226
6.59273672103881836 -0.67005842924118042 1.79371404647827148 228 227 228
6.59370660781860352 -0.670008659362792969 1.79326379299163818 228 228 228
6.59457778930664062 -0.669892609119415283 1.7922137975692749 227 226 227
6.59545040130615234 -0.669776797294616699 1.79116618633270264 229 228 228
6.59629535675048828 -0.669641196727752686 1.78993964195251465 228 227 228
6.59695053100585938 -0.669375956058502197 1.78754067420959473 224 223 224
6.59754276275634766 -0.669065475463867188 1.78473234176635742 228 227 228
6.50023269653320312 -0.677380800247192383 1.85089504718780518 255 255 255
6.50124120712280273 -0.677384138107299805 1.85092508792877197 255 255 255
6.50224924087524414 -0.677387356758117676 1.85095489025115967 255 255 255
6.50325727462768555 -0.677390694618225098 1.85098481178283691 255 255 255
6.50426530838012695 -0.677393972873687744 1.85101497173309326 255 255 255
6.50527572631835938 -0.677398204803466797 1.85105347633361816 255 255 255
6.50628566741943359 -0.6774025559425354 1.85109317302703857 255 255 255
6.50729608535766602 -0.677406907081604004 1.85113286972045898 255 255 255
6.50830602645874023 -0.677411258220672607 1.85117244720458984 255 255 255
6.50931644439697266 -0.677415609359741211 1.8512120246887207 255 255 255
6.51032638549804688 -0.677419960498809814 1.85125148296356201 255 255 255
6.51133632659912109 -0.677424192428588867 1.85129034519195557 255 255 255
6.51234579086303711 -0.677428483963012695 1.85132932662963867 255 255 255
6.51335525512695312 -0.677432775497436523 1.85136818885803223 255 255 255
6.51436519622802734 -0.677437007427215576 1.85140705108642578 255 255 255
6.51537466049194336 -0.677441239356994629 1.85144543647766113 255 255 255
6.51637935638427734 -0.677443146705627441 1.85146307945251465 255 255 255
6.51738357543945312 -0.677445054054260254 1.85148000717163086 255 255 255
6.51838779449462891 -0.677446901798248291 1.85149693489074707 255 255 255
6.51939201354980469 -0.677448749542236328 1.85151386260986328 255 255 255
6.52039432525634766 -0.677449584007263184 1.85152161121368408 255 255 255
6.52139472961425781 -0.677449703216552734 1.85152232646942139 255 255 255
6.52238750457763672 -0.677446067333221436 1.85148918628692627 255 255 255
6.52338027954101562 -0.677442431449890137 1.85145604610443115 241 240 241
6.52437305450439453 -0.677438795566558838 1.85142326354980469 221 220 221
6.52536678314208984 -0.677435576915740967 1.85139381885528564 212 211 212
6.52635860443115234 -0.677431404590606689 1.85135567188262939 208 206 207
6.52733945846557617 -0.677421689033508301 1.85126709938049316 208 207 208
6.5283203125 -0.677412092685699463 1.85117995738983154 207 206 207
6.52930164337158203 -0.677402794361114502 1.85109519958496094 205 204 205
6.53028392791748047 -0.677393436431884766 1.85101032257080078 205 204 205
6.5312657356262207 -0.677384138107299805 1.85092556476593018 205 203 205
6.53224754333496094 -0.677374839782714844 1.85084068775177002 202 201 202
6.53322601318359375 -0.67736351490020752 1.85073769092559814 202 201 202
6.53420257568359375 -0.677351593971252441 1.85062873363494873 203 201 203
6.53518009185791016 -0.677339613437652588 1.85051965713500977 202 201 202
6.53615713119506836 -0.677327513694763184 1.85040926933288574 203 201 202
6.53711843490600586 -0.677307426929473877 1.8502267599105835 203 202 203
6.53807783126831055 -0.677286148071289062 1.85003244876861572 203 202 203
6.53903722763061523 -0.677264750003814697 1.84983766078948975 203 202 203
6.53999710083007812 -0.677243530750274658 1.84964466094970703 204 203 204
6.54095840454101562 -0.677222788333892822 1.84945547580718994 203 202 203
6.54191780090332031 -0.677200973033905029 1.84925699234008789 204 203 204
6.54287338256835938 -0.677176952362060547 1.84903812408447266 205 204 205
6.54382896423339844 -0.677152931690216064 1.84881925582885742 209 208 209
6.5447845458984375 -0.67712867259979248 1.84859824180603027 212 211 212
6.54574108123779297 -0.677104353904724121 1.84837710857391357 232 232 232
6.54669618606567383 -0.677079558372497559 1.84815120697021484 250 250 250
6.54764986038208008 -0.677053689956665039 1.84791505336761475 255 255 255
6.54860353469848633 -0.677027583122253418 1.84767770767211914 255 255 255
6.54955768585205078 -0.677001535892486572 1.84744012355804443 255 255 255
6.55051183700561523 -0.676975429058074951 1.84720253944396973 255 255 255
6.55146884918212891 -0.676950514316558838 1.84697556495666504 255 255 255
6.55242824554443359 -0.676926791667938232 1.84675943851470947 255 255 255
6.55338811874389648 -0.676903128623962402 1.84654402732849121 255 255 255
6.55434846878051758 -0.676879525184631348 1.84632861614227295 255 255 255
6.55531024932861328 -0.676856398582458496 1.84611809253692627 255 255 255
6.5562748908996582 -0.67683488130569458 1.84592223167419434 255 255 255
6.55723953247070312 -0.676813006401062012 1.84572291374206543 255 255 255
6.55820178985595703 -0.676789820194244385 1.84551191329956055 255 255 255
6.55916738510131836 -0.676768124103546143 1.84531402587890625 255 255 255
6.56013584136962891 -0.676747918128967285 1.84512996673583984 255 255 255
6.56110477447509766 -0.676727652549743652 1.84494566917419434 255 255 255
6.56207370758056641 -0.676707446575164795 1.84476149082183838 255 255 255
6.56304264068603516 -0.676687240600585938 1.84457719326019287 255 255 255
6.56400680541992188 -0.676663756370544434 1.84436345100402832 255 255 255
6.56497049331665039 -0.676640093326568604 1.84414780139923096 255 255 255
6.56593418121337891 -0.676616251468658447 1.84393072128295898 255 255 255
6.56689739227294922 -0.676591932773590088 1.84370934963226318 255 255 255
6.56786108016967773 -0.676567673683166504 1.84348785877227783 255 255 255
6.56882524490356445 -0.676543354988098145 1.84326636791229248 254 254 254
6.56978511810302734 -0.676516711711883545 1.84302389621734619 239 238 238
6.57073307037353516 -0.676482677459716797 1.84271383285522461 218 217 218
6.5716705322265625 -0.676442325115203857 1.84234654903411865 210 209 210
6.57259798049926758 -0.676395833492279053 1.84192299842834473 206 205 206
6.57352590560913086 -0.676349282264709473 1.84149909019470215 206 204 205
6.57445430755615234 -0.676302731037139893 1.84107482433319092 205 204 205
6.57538318634033203 -0.676256120204925537 1.84065032005310059 205 203 204
6.57631301879882812 -0.676209509372711182 1.8402259349822998 204 203 204
6.57724475860595703 -0.676163613796234131 1.83980751037597656 205 204 205
6.57813692092895508 -0.676093816757202148 1.8391721248626709 203 202 203
6.57902097702026367 -0.676018714904785156 1.83848810195922852 203 202 203
6.57990646362304688 -0.675943911075592041 1.8378065824508667 203 202 203
6.58079719543457031 -0.675871431827545166 1.83714640140533447 201 200 201
6.58164644241333008 -0.675773322582244873 1.83625257015228271 201 200 201
6.58240509033203125 -0.675619244575500488 1.83484888076782227 201 199 200
6.58316516876220703 -0.675464808940887451 1.83344221115112305 200 199 200
6.58390617370605469 -0.675297379493713379 1.83191728591918945 200 199 200
6.57984161376953125 -0.672170341014862061 1.80343341827392578 201 200 201
6.58063077926635742 -0.672016799449920654 1.80203449726104736 201 199 200
6.58147144317626953 -0.67189401388168335 1.80091619491577148 201 200 200
6.58234405517578125 -0.671789884567260742 1.79996740818023682 202 200 201
6.58321762084960938 -0.671685576438903809 1.79901742935180664 201 200 201
6.58410501480102539 -0.671589136123657227 1.79813909530639648 200 199 200
6.585052490234375 -0.671529591083526611 1.79759669303894043 201 200 201
6.58601093292236328 -0.671476602554321289 1.79711425304412842 199 198 199
6.58696699142456055 -0.671421706676483154 1.79661417007446289 199 198 199
6.58792352676391602 -0.671366572380065918 1.79611194133758545 200 200 200
6.58888053894042969 -0.671311378479003906 1.79560935497283936 201 200 201
6.58983850479125977 -0.671256184577941895 1.79510629177093506 201 200 201
6.5908045768737793 -0.671205520629882812 1.79464483261108398 203 202 203
6.59177160263061523 -0.671155214309692383 1.79418635368347168 204 203 204
6.59274101257324219 -0.671105921268463135 1.79373753070831299 204 203 204
6.59371089935302734 -0.671056628227233887 1.7932884693145752 207 205 207
6.59459638595581055 -0.670951247215270996 1.7923283576965332 206 205 206
6.59545564651489258 -0.670827090740203857 1.79119777679443359 206 205 206
6.59632635116577148 -0.670709490776062012 1.79012644290924072 206 205 206
6.59698200225830078 -0.670446813106536865 1.78773367404937744 205 204 205
6.59758901596069336 -0.670148491859436035 1.78501677513122559 204 203 204
6.50023746490478516 -0.678383708000183105 1.8509136438369751 255 255 255
6.50124549865722656 -0.678386926651000977 1.85094356536865234 255 255 255
6.50225400924682617 -0.678390204906463623 1.85097348690032959 255 255 255
6.50326156616210938 -0.678393423557281494 1.85100317001342773 255 255 255
6.50427007675170898 -0.678396761417388916 1.85103380680084229 255 255 255
6.50528049468994141 -0.67840111255645752 1.85107386112213135 255 255 255
6.50629043579101562 -0.678405463695526123 1.85111343860626221 255 255 255
6.50730085372924805 -0.678409814834594727 1.85115313529968262 255 255 255
6.50831127166748047 -0.678414106369018555 1.85119283199310303 255 255 255
6.50932121276855469 -0.678418397903442383 1.85123240947723389 255 255 255
6.51033115386962891 -0.678422689437866211 1.85127127170562744 255 255 255
6.51134061813354492 -0.678426921367645264 1.851310133934021 255 255 255
6.51235055923461914 -0.678431153297424316 1.85134899616241455 255 255 255
6.51336002349853516 -0.678435325622558594 1.851387619972229 255 255 255
6.51436948776245117 -0.678439557552337646 1.85142624378204346 255 255 255
6.51537752151489258 -0.678442955017089844 1.85145747661590576 255 255 255
6.51638174057006836 -0.678444802761077881 1.85147428512573242 255 255 255
6.51738548278808594 -0.678446412086486816 1.85148894786834717 255 255 255
6.51838922500610352 -0.678448021411895752 1.85150372982025146 255 255 255
6.5193934440612793 -0.678449809551239014 1.85152041912078857 255 255 255
6.52039718627929688 -0.678451299667358398 1.85153388977050781 255 255 255
6.5213923454284668 -0.678448915481567383 1.85151219367980957 255 255 255
6.52238559722900391 -0.678445577621459961 1.85148143768310547 255 255 255
6.52337932586669922 -0.67844235897064209 1.85145199298858643 236 235 236
6.52437305450439453 -0.678439140319824219 1.85142254829406738 214 213 214
6.52536678314208984 -0.678435921669006348 1.85139310359954834 209 208 209
6.52635383605957031 -0.678429484367370605 1.85133373737335205 208 206 208
6.52733421325683594 -0.678419828414916992 1.85124504566192627 207 206 207
6.52831506729125977 -0.678410172462463379 1.85115635395050049 207 205 206
6.52929592132568359 -0.678400516510009766 1.85106778144836426 205 203 205
6.53027725219726562 -0.678391098976135254 1.8509819507598877 205 204 205
6.53125953674316406 -0.678381919860839844 1.85089719295501709 206 205 206
6.5322413444519043 -0.678372621536254883 1.85081243515014648 205 204 205
6.53322267532348633 -0.678363025188446045 1.8507239818572998 206 204 205
6.53419971466064453 -0.678351163864135742 1.85061502456665039 206 205 206
6.53517675399780273 -0.678339242935180664 1.85050594806671143 204 203 204
6.53615045547485352 -0.678325414657592773 1.85037922859191895 204 202 204
6.53711175918579102 -0.678305506706237793 1.8501967191696167 202 201 202
6.53807258605957031 -0.678285062313079834 1.85000884532928467 200 199 200
6.539031982421875 -0.67826378345489502 1.84981405735015869 199 198 199
6.53999137878417969 -0.67824256420135498 1.84961915016174316 200 199 200
6.54095172882080078 -0.678221285343170166 1.84942412376403809 199 198 199
6.54191160202026367 -0.678200006484985352 1.84922850131988525 202 200 201
6.54286670684814453 -0.678175866603851318 1.84900748729705811 204 203 204
6.54382228851318359 -0.678151786327362061 1.84878635406494141 205 204 205
6.54477787017822266 -0.678127646446228027 1.84856522083282471 204 203 204
6.54573392868041992 -0.678103506565093994 1.8483436107635498 221 220 221
6.54668903350830078 -0.678078711032867432 1.84811592102050781 251 250 251
6.54764318466186523 -0.678053319454193115 1.84788334369659424 255 255 255
6.54859685897827148 -0.678027451038360596 1.84764587879180908 255 255 255
6.54955101013183594 -0.678001523017883301 1.84740829467773438 255 255 255
6.55050516128540039 -0.677975654602050781 1.84717071056365967 255 255 255
6.55146408081054688 -0.67795175313949585 1.84695160388946533 255 255 255
6.55242300033569336 -0.67792809009552002 1.84673428535461426 255 255 255
6.55338287353515625 -0.677904605865478516 1.84651899337768555 255 255 255
6.55434322357177734 -0.677881121635437012 1.84630346298217773 255 255 255
6.55530738830566406 -0.67785954475402832 1.84610545635223389 255 255 255
6.55627250671386719 -0.67783820629119873 1.8459094762802124 255 255 255
6.55723762512207031 -0.677816808223724365 1.84571361541748047 255 255 255
6.55820035934448242 -0.677793920040130615 1.84550368785858154 255 255 255
6.55916833877563477 -0.677773833274841309 1.84531950950622559 255 255 255
6.56013679504394531 -0.677753806114196777 1.84513545036315918 255 255 255
6.56110572814941406 -0.677733719348907471 1.84495127201080322 255 255 255
6.56207466125488281 -0.677713632583618164 1.84476697444915771 255 255 255
6.56304407119750977 -0.677693545818328857 1.84458267688751221 255 255 255
6.56401157379150391 -0.677672266960144043 1.84438741207122803 255 255 255
6.56497478485107422 -0.677648723125457764 1.84417176246643066 255 255 255
6.56593847274780273 -0.677624762058258057 1.84395182132720947 255 255 255
6.56690168380737305 -0.677600622177124023 1.84373044967651367 255 255 255
6.56786537170410156 -0.67757648229598999 1.84350895881652832 255 255 255
6.56882905960083008 -0.677552342414855957 1.84328746795654297 255 255 255
6.569793701171875 -0.677528142929077148 1.84306585788726807 232 231 232
6.57074642181396484 -0.677497506141662598 1.84278464317321777 211 210 211
6.57167577743530273 -0.677452683448791504 1.84237313270568848 208 207 207
6.57260274887084961 -0.677406489849090576 1.84194958209991455 203 202 203
6.57353067398071289 -0.677360296249389648 1.84152555465698242 203 202 203
6.57445907592773438 -0.677314043045043945 1.84110140800476074 204 203 203
6.57538843154907227 -0.677267730236053467 1.84067690372467041 203 202 203
6.57631778717041016 -0.677221417427062988 1.84025216102600098 203 202 203
6.57724952697753906 -0.677175700664520264 1.83983266353607178 204 203 204
6.57815265655517578 -0.677113056182861328 1.83925819396972656 203 202 203
6.57903671264648438 -0.67703855037689209 1.83857429027557373 203 202 203
6.57992172241210938 -0.676963925361633301 1.83788967132568359 203 202 203
6.58080863952636719 -0.676889538764953613 1.83720755577087402 201 199 201
6.58165168762207031 -0.676788628101348877 1.83628189563751221 200 198 199
6.58241033554077148 -0.676635622978210449 1.83487832546234131 199 198 199
6.58317089080810547 -0.676482319831848145 1.83347165584564209 198 197 198
6.58393239974975586 -0.676328659057617188 1.8320622444152832 198 197 198
6.57985115051269531 -0.673213601112365723 1.80348670482635498 200 199 200
6.58064031600952148 -0.673061132431030273 1.80208814144134521 200 198 199
6.58145427703857422 -0.672922611236572266 1.80081760883331299 200 199 200
6.58232641220092773 -0.672819137573242188 1.79986870288848877 201 200 201
6.58321189880371094 -0.672722816467285156 1.79898464679718018 200 199 200
6.58411264419555664 -0.672635316848754883 1.79818248748779297 200 199 200
6.58504438400268555 -0.672566473484039307 1.79755067825317383 200 199 200
6.58600282669067383 -0.672513842582702637 1.79706811904907227 198 197 198
6.58696174621582031 -0.672461211681365967 1.7965853214263916 198 197 198
6.5879216194152832 -0.672408580780029297 1.79610216617584229 200 199 200
6.5888824462890625 -0.672355830669403076 1.79561865329742432 200 199 200
6.58984279632568359 -0.672302722930908203 1.79513156414031982 201 200 201
6.59080696105957031 -0.672251284122467041 1.79465949535369873 203 202 203
6.59177589416503906 -0.672202408313751221 1.79421103000640869 204 203 204
6.59274482727050781 -0.672153472900390625 1.79376232624053955 204 203 204
6.59371471405029297 -0.672104537487030029 1.79331326484680176 206 205 206
6.59461593627929688 -0.672009944915771484 1.79244565963745117 205 204 205
6.59547519683837891 -0.671886742115020752 1.79131531715393066 205 204 205
6.59633541107177734 -0.671763300895690918 1.79018330574035645 204 203 204
6.59702873229980469 -0.67152714729309082 1.78801679611206055 202 201 202
6.59763526916503906 -0.671231091022491455 1.78530097007751465 200 199 200
6.50024175643920898 -0.679386317729949951 1.85093045234680176 255 255 255
6.50124979019165039 -0.679389536380767822 1.8509601354598999 255 255 255
6.5022578239440918 -0.679392755031585693 1.85098981857299805 255 255 255
6.5032658576965332 -0.679395973682403564 1.85101974010467529 255 255 255
6.50427436828613281 -0.679399549961090088 1.85105276107788086 255 255 255
6.50528478622436523 -0.679403781890869141 1.85109198093414307 255 255 255
6.50629520416259766 -0.67940819263458252 1.85113227367401123 255 255 255
6.50730562210083008 -0.679412543773651123 1.85117256641387939 255 255 255
6.5083160400390625 -0.679416894912719727 1.85121273994445801 255 255 255
6.50932598114013672 -0.679421126842498779 1.85125195980072021 255 255 255
6.51033592224121094 -0.679425299167633057 1.85129058361053467 255 255 255
6.51134538650512695 -0.679429471492767334 1.85132920742034912 255 255 255
6.51235485076904297 -0.679433643817901611 1.85136783123016357 255 255 255
6.51336479187011719 -0.679437875747680664 1.85140645503997803 255 255 255
6.51437282562255859 -0.679441571235656738 1.85144054889678955 255 255 255
6.51537990570068359 -0.679444611072540283 1.85146892070770264 255 255 255
6.51638507843017578 -0.679446697235107422 1.85148847103118896 255 255 255
6.51738882064819336 -0.679448306560516357 1.85150325298309326 255 255 255
6.51839256286621094 -0.679449915885925293 1.85151791572570801 255 255 255
6.51939630508422852 -0.679451465606689453 1.85153257846832275 255 255 255
6.52039861679077148 -0.679452359676361084 1.85154080390930176 255 255 255
6.52139186859130859 -0.679449081420898438 1.85151004791259766 255 255 255
6.52238559722900391 -0.679445862770080566 1.85148060321807861 255 255 255
6.52337932586669922 -0.679442703723907471 1.85145115852355957 232 231 232
6.52437305450439453 -0.6794394850730896 1.85142183303833008 209 208 209
6.52536678314208984 -0.679436326026916504 1.85139226913452148 206 204 206
6.52634906768798828 -0.679427623748779297 1.85131168365478516 206 205 206
6.52732944488525391 -0.679417967796325684 1.85122311115264893 206 205 206
6.52831029891967773 -0.679408431053161621 1.85113441944122314 206 205 206
6.52929115295410156 -0.679398775100708008 1.85104584693908691 205 204 205
6.53027200698852539 -0.679389238357543945 1.85095715522766113 205 204 205
6.53125286102294922 -0.679379642009735107 1.85086894035339355 206 205 206
6.53223514556884766 -0.679370462894439697 1.8507840633392334 205 204 205
6.53321743011474609 -0.679361283779144287 1.85069918632507324 205 204 205
6.53419685363769531 -0.679350733757019043 1.85060131549835205 205 204 205
6.53517389297485352 -0.67933887243270874 1.85049223899841309 203 202 203
6.53614377975463867 -0.679323434829711914 1.8503493070602417 203 201 202
6.53710556030273438 -0.679303646087646484 1.85016679763793945 203 201 202
6.53806734085083008 -0.679283857345581055 1.84998416900634766 202 200 201
6.53902673721313477 -0.679262936115264893 1.84979045391082764 202 201 202
6.53998661041259766 -0.679241836071014404 1.84959554672241211 203 202 203
6.54094648361206055 -0.679220736026763916 1.84940052032470703 203 202 203
6.54190397262573242 -0.679198205471038818 1.84919238090515137 205 204 205
6.54286003112792969 -0.679174602031707764 1.84897446632385254 207 205 206
6.54381513595581055 -0.679150700569152832 1.84875333309173584 206 205 206
6.54477071762084961 -0.679126739501953125 1.84853219985961914 205 204 205
6.54572629928588867 -0.679102540016174316 1.84830844402313232 211 210 211
6.54668140411376953 -0.679077863693237305 1.84808063507080078 251 250 250
6.54763650894165039 -0.679053068161010742 1.84785151481628418 255 255 255
6.54859018325805664 -0.679027318954467773 1.84761404991149902 255 255 255
6.54954433441162109 -0.67900162935256958 1.84737658500671387 255 255 255
6.55049991607666016 -0.678976655006408691 1.847145676612854 255 255 255
6.55145883560180664 -0.678953051567077637 1.84692752361297607 255 255 255
6.55241775512695312 -0.678929448127746582 1.84670937061309814 255 255 255
6.55337810516357422 -0.678906083106994629 1.84649384021759033 255 255 255
6.55434036254882812 -0.678883910179138184 1.84628856182098389 255 255 255
6.55530500411987305 -0.678862690925598145 1.84609270095825195 255 255 255
6.55626964569091797 -0.678841471672058105 1.84589684009552002 255 255 255
6.55723476409912109 -0.678820252418518066 1.84570086002349854 255 255 255
6.55820131301879883 -0.67879951000213623 1.84550917148590088 255 255 255
6.55916976928710938 -0.67877960205078125 1.84532511234283447 255 255 255
6.56013774871826172 -0.67875969409942627 1.84514093399047852 255 255 255
6.56110668182373047 -0.678739726543426514 1.84495675563812256 255 255 255
6.56207561492919922 -0.678719758987426758 1.8447725772857666 255 255 255
6.56304502487182617 -0.678699851036071777 1.84458827972412109 255 255 255
6.56401443481445312 -0.678679883480072021 1.84440386295318604 255 255 255
6.56497955322265625 -0.678657174110412598 1.84419417381286621 255 255 255
6.56594228744506836 -0.678633213043212891 1.84397292137145996 255 255 255
6.56690549850463867 -0.678609251976013184 1.84375154972076416 255 255 255
6.56786918640136719 -0.678585290908813477 1.84353017807006836 255 255 255
6.56883335113525391 -0.67856132984161377 1.84330868721008301 255 254 255
6.56979751586914062 -0.678537428379058838 1.84308803081512451 229 228 229
6.57075595855712891 -0.678510010242462158 1.84283447265625 207 206 207
6.571685791015625 -0.678465664386749268 1.84242510795593262 205 204 205
6.57261466979980469 -0.678420841693878174 1.8420109748840332 204 202 203
6.57354402542114258 -0.678375959396362305 1.84159636497497559 203 202 202
6.57447433471679688 -0.678331136703491211 1.84118175506591797 203 202 203
6.57540512084960938 -0.678286194801330566 1.8407667875289917 203 202 203
6.57633638381958008 -0.678241252899169922 1.84035146236419678 202 201 202
6.57726287841796875 -0.678193092346191406 1.83990645408630371 203 202 203
6.57816457748413086 -0.678129792213439941 1.83932197093963623 202 200 201
6.57904958724975586 -0.678056240081787109 1.83864271640777588 201 200 201
6.57993507385253906 -0.677982687950134277 1.83796274662017822 201 200 201
6.58082199096679688 -0.677909016609191895 1.83728206157684326 200 198 200
6.58166360855102539 -0.677807748317718506 1.83634674549102783 199 198 199
6.58242511749267578 -0.677657485008239746 1.83495819568634033 199 198 199
6.58318758010864258 -0.677506864070892334 1.83356690406799316 198 197 198
6.58395195007324219 -0.677355945110321045 1.83217263221740723 198 196 198
6.57986068725585938 -0.674256682395935059 1.80354022979736328 199 198 199
6.58064985275268555 -0.674105346202850342 1.80214166641235352 199 198 199
6.58144044876098633 -0.673953652381896973 1.80074036121368408 200 198 199
6.58231925964355469 -0.673855006694793701 1.79982912540435791 201 200 201
6.58321952819824219 -0.673768281936645508 1.79902803897857666 200 199 200
6.58412027359008789 -0.673681497573852539 1.79822587966918945 201 199 200
6.58503627777099609 -0.673603415489196777 1.79750454425811768 201 200 201
6.58599472045898438 -0.673551201820373535 1.79702210426330566 200 199 200
6.58695411682128906 -0.673498928546905518 1.79653918743133545 200 199 200
6.58791351318359375 -0.673446595668792725 1.79605603218078613 201 200 201
6.58887529373168945 -0.673394918441772461 1.79557836055755615 200 199 200
6.58984088897705078 -0.673345029354095459 1.79511761665344238 200 199 200
6.59080982208251953 -0.673297286033630371 1.79467654228210449 202 200 201
6.59177970886230469 -0.673249602317810059 1.79423582553863525 202 201 202
6.59274911880493164 -0.673201024532318115 1.79378700256347656 202 201 202
6.5937190055847168 -0.673152446746826172 1.79333806037902832 203 202 203
6.5946354866027832 -0.673068523406982422 1.79256296157836914 203 202 203
6.59549474716186523 -0.67294621467590332 1.79143285751342773 203 202 203
6.59635066986083984 -0.672820985317230225 1.79027628898620605 203 202 203
6.59708738327026367 -0.672615289688110352 1.7883758544921875 203 201 202
6.59768152236938477 -0.672313213348388672 1.78558516502380371 201 200 201
6.50024557113647461 -0.680388927459716797 1.85094690322875977 255 255 255
6.50125408172607422 -0.680392086505889893 1.85097658634185791 255 255 255
6.50226211547851562 -0.680395305156707764 1.85100650787353516 255 255 255
6.50327014923095703 -0.68039858341217041 1.85103678703308105 255 255 255
6.50427913665771484 -0.680402278900146484 1.85107171535491943 255 255 255
6.50528907775878906 -0.680406451225280762 1.85110998153686523 255 255 255
6.50629949569702148 -0.68041074275970459 1.8511502742767334 255 255 255
6.50730991363525391 -0.680415093898773193 1.85119056701660156 255 255 255
6.50832033157348633 -0.680419385433197021 1.85123074054718018 255 255 255
6.50933027267456055 -0.680423736572265625 1.85127067565917969 255 255 255
6.51034021377563477 -0.680427849292755127 1.85130941867828369 255 255 255
6.51134967803955078 -0.680432021617889404 1.85134804248809814 255 255 255
6.512359619140625 -0.680436134338378906 1.8513866662979126 255 255 255
6.51336860656738281 -0.680440127849578857 1.85142362117767334 255 255 255
6.51437568664550781 -0.680443167686462402 1.85145199298858643 255 255 255
6.51538276672363281 -0.680446207523345947 1.85148024559020996 255 255 255
6.5163884162902832 -0.680448651313781738 1.85150277614593506 255 255 255
6.51739215850830078 -0.680450201034545898 1.8515174388885498 255 255 255
6.51839590072631836 -0.680451810359954834 1.85153210163116455 255 255 255
6.51939725875854492 -0.680452227592468262 1.85153651237487793 255 255 255
6.52039861679077148 -0.680452704429626465 1.85154092311859131 255 255 255
6.521392822265625 -0.680449843406677246 1.85151386260986328 255 255 255
6.52238607406616211 -0.680446445941925049 1.85148239135742188 255 255 255
6.52337932586669922 -0.680443108081817627 1.85145103931427002 231 231 231
6.52437257766723633 -0.68043982982635498 1.85142099857330322 207 206 207
6.52536344528198242 -0.680435299873352051 1.85137832164764404 205 204 205
6.52634382247924805 -0.680425763130187988 1.85128974914550781 205 204 205
6.52732467651367188 -0.680416226387023926 1.85120105743408203 205 203 204
6.5283050537109375 -0.680406689643859863 1.8511124849319458 205 204 205
6.52928590774536133 -0.680397152900695801 1.85102379322052002 206 204 205
6.53026676177978516 -0.680387616157531738 1.85093510150909424 206 205 206
6.53124809265136719 -0.680378079414367676 1.85084640979766846 207 205 207
6.53222942352294922 -0.680368542671203613 1.85075771808624268 205 204 205
6.53321123123168945 -0.680359244346618652 1.85067093372344971 205 204 205
6.53419351577758789 -0.680350124835968018 1.85058605670928955 205 204 205
6.5351710319519043 -0.680338561534881592 1.8504786491394043 204 203 203
6.53613758087158203 -0.680321455001831055 1.85031938552856445 203 202 203
6.53709888458251953 -0.680301845073699951 1.85013675689697266 204 203 203
6.53806066513061523 -0.680282235145568848 1.84995412826538086 202 201 202
6.53902196884155273 -0.680262088775634766 1.84976685047149658 203 201 202
6.53998136520385742 -0.680241107940673828 1.84957194328308105 204 203 203
6.54094076156616211 -0.680219769477844238 1.8493729829788208 204 202 203
6.54189634323120117 -0.680196464061737061 1.84915626049041748 204 203 204
6.54285240173339844 -0.680173158645629883 1.84893941879272461 205 204 205
6.5438079833984375 -0.680149614810943604 1.84872031211853027 204 203 204
6.54476356506347656 -0.680125832557678223 1.84849917888641357 203 202 203
6.54571914672851562 -0.680101513862609863 1.84827315807342529 212 211 212
6.54667377471923828 -0.680077075958251953 1.84804534912109375 251 250 251
6.54762935638427734 -0.680052578449249268 1.84781754016876221 255 255 255
6.5485835075378418 -0.680027306079864502 1.84758234024047852 255 255 255
6.54953765869140625 -0.680001735687255859 1.84734475612640381 255 255 255
6.55049514770507812 -0.679977774620056152 1.84712159633636475 255 255 255
6.55145359039306641 -0.679954349994659424 1.84690344333648682 255 255 255
6.55241298675537109 -0.679930925369262695 1.84668529033660889 255 255 255
6.55337333679199219 -0.679907917976379395 1.84647166728973389 255 255 255
6.55433750152587891 -0.679886877536773682 1.8462759256362915 255 255 255
6.55530261993408203 -0.67986607551574707 1.84608185291290283 255 255 255
6.55626821517944336 -0.679845273494720459 1.84588861465454102 255 255 255
6.55723381042480469 -0.679824531078338623 1.8456953763961792 255 255 255
6.55820083618164062 -0.67980426549911499 1.84550702571868896 255 255 255
6.55916929244995117 -0.679784536361694336 1.84532320499420166 255 255 255
6.56013774871826172 -0.679764747619628906 1.84513938426971436 255 255 255
6.56110668182373047 -0.679745018482208252 1.8449554443359375 255 255 255
6.56207561492919922 -0.679725229740142822 1.84477150440216064 255 255 255
6.56304502487182617 -0.679705440998077393 1.84458756446838379 255 255 255
6.56401538848876953 -0.679686069488525391 1.84440720081329346 255 255 255
6.56498479843139648 -0.67966616153717041 1.84422183036804199 255 255 255
6.5659480094909668 -0.679642438888549805 1.8440011739730835 255 255 255
6.56691122055053711 -0.679618716239929199 1.8437807559967041 255 255 255
6.56787490844726562 -0.679595053195953369 1.84356033802032471 255 255 255
6.56883907318115234 -0.679571330547332764 1.84333980083465576 254 254 254
6.56980371475219727 -0.679547667503356934 1.84311914443969727 228 228 228
6.57076263427734375 -0.679520547389984131 1.84286689758300781 206 205 206
6.57169818878173828 -0.679480195045471191 1.84249186515808105 206 205 206
6.57263374328613281 -0.67943960428237915 1.84211397171020508 204 203 204
6.57356357574462891 -0.679395079612731934 1.84169948101043701 203 202 203
6.574493408203125 -0.679350495338439941 1.84128487110137939 203 202 203
6.5754241943359375 -0.679305911064147949 1.84086990356445312 203 201 203
6.57635593414306641 -0.679261267185211182 1.84045469760894775 202 201 202
6.57726621627807617 -0.679204165935516357 1.83992338180541992 203 202 203
6.57816886901855469 -0.6791420578956604 1.83934509754180908 202 200 202
6.57906103134155273 -0.67907339334487915 1.83870649337768555 201 200 201
6.57994699478149414 -0.679000377655029297 1.83802664279937744 202 201 201
6.58083391189575195 -0.678927183151245117 1.83734607696533203 200 199 200
6.58167839050292969 -0.678828656673431396 1.83642935752868652 200 198 200
6.58245086669921875 -0.678686022758483887 1.83510172367095947 200 199 200
6.58321380615234375 -0.678536534309387207 1.83371067047119141 199 197 199
6.58397769927978516 -0.678386688232421875 1.83231675624847412 198 197 198
6.57985973358154297 -0.675293445587158203 1.80353462696075439 200 198 199
6.58064842224121094 -0.675142765045166016 1.80213284492492676 199 198 199
6.58143997192382812 -0.674992918968200684 1.80073845386505127 199 198 199
6.58231925964355469 -0.674894928932189941 1.79982650279998779 201 200 201
6.58322668075561523 -0.674813747406005859 1.79907131195068359 200 199 200
6.58412742614746094 -0.674727559089660645 1.79826927185058594 200 199 200
6.58502960205078125 -0.674641251564025879 1.79746615886688232 201 200 201
6.58598661422729492 -0.674588561058044434 1.79697597026824951 201 199 200
6.58694696426391602 -0.674537360668182373 1.79649937152862549 200 199 200
6.58791065216064453 -0.674487888813018799 1.79603934288024902 200 199 200
6.58887577056884766 -0.674438416957855225 1.79557883739471436 199 198 199
6.58984088897705078 -0.674389183521270752 1.79512059688568115 199 198 199
6.59081077575683594 -0.67434227466583252 1.79468417167663574 200 199 200
6.5917816162109375 -0.674295306205749512 1.79424738883972168 200 199 200
6.59275293350219727 -0.674248337745666504 1.79381036758422852 200 199 200
6.59372329711914062 -0.674200236797332764 1.79336273670196533 202 201 202
6.59465503692626953 -0.674126923084259033 1.79268026351928711 202 201 202
6.59551143646240234 -0.674003958702087402 1.79153656959533691 202 201 202
6.59636497497558594 -0.673877716064453125 1.79036140441894531 203 202 203
6.59715652465820312 -0.673709511756896973 1.78879690170288086 203 202 203
6.59772777557373047 -0.673394918441772461 1.78586912155151367 204 203 204
6.50024986267089844 -0.681391477584838867 1.85096335411071777 255 255 255
6.50125789642333984 -0.681394636631011963 1.85099327564239502 255 255 255
6.50226593017578125 -0.681397855281829834 1.85102355480194092 255 255 255
6.50327396392822266 -0.68140113353729248 1.85105383396148682 255 255 255
6.50428390502929688 -0.681405067443847656 1.85109055042266846 255 255 255
6.50529384613037109 -0.681409060955047607 1.85112833976745605 255 255 255
6.50630378723144531 -0.68141329288482666 1.85116839408874512 255 255 255
6.50731420516967773 -0.681417584419250488 1.85120856761932373 255 255 255
6.50832462310791016 -0.681421875953674316 1.85124862194061279 255 255 255
6.50933456420898438 -0.681426167488098145 1.85128867626190186 255 255 255
6.51034450531005859 -0.681430399417877197 1.85132825374603271 255 255 255
6.51135444641113281 -0.681434512138366699 1.85136687755584717 255 255 255
6.51236391067504883 -0.681438624858856201 1.85140562057495117 255 255 255
6.51337146759033203 -0.681441783905029297 1.85143506526947021 255 255 255
6.51437854766845703 -0.681444823741912842 1.85146331787109375 255 255 255
6.51538562774658203 -0.681447803974151611 1.85149157047271729 255 255 255
6.51639175415039062 -0.681450545787811279 1.8515169620513916 255 255 255
6.5173945426940918 -0.681451678276062012 1.85152781009674072 255 255 255
6.51839590072631836 -0.681452155113220215 1.8515322208404541 255 255 255
6.51939725875854492 -0.681452631950378418 1.85153663158416748 255 255 255
6.52039861679077148 -0.681453108787536621 1.85154104232788086 255 255 255
6.52139377593994141 -0.681450605392456055 1.8515174388885498 255 255 255
6.52238655090332031 -0.681447267532348633 1.85148608684539795 255 255 255
6.52338027954101562 -0.681443870067596436 1.85145485401153564 230 229 230
6.52437305450439453 -0.681440532207489014 1.85142338275909424 207 205 206
6.525360107421875 -0.681434214115142822 1.85136401653289795 206 204 205
6.52634048461914062 -0.681424558162689209 1.85127365589141846 205 204 205
6.52732038497924805 -0.681414961814880371 1.85118341445922852 204 203 204
6.52830076217651367 -0.681405305862426758 1.85109293460845947 203 201 203
6.5292811393737793 -0.681395649909973145 1.85100269317626953 204 203 204
6.53026199340820312 -0.681386113166809082 1.85091316699981689 205 204 205
6.53124332427978516 -0.681376636028289795 1.85082447528839111 206 205 206
6.53222465515136719 -0.681367158889770508 1.85073578357696533 205 204 205
6.53320598602294922 -0.681357681751251221 1.85064709186553955 205 204 205
6.53418731689453125 -0.681348204612731934 1.85055828094482422 205 204 205
6.53516769409179688 -0.681338250637054443 1.85046494007110596 204 203 204
6.53613090515136719 -0.681319534778594971 1.85028934478759766 204 203 204
6.53709220886230469 -0.681300044059753418 1.85010683536529541 205 204 205
6.53805446624755859 -0.681280553340911865 1.84992420673370361 204 203 204
6.5390162467956543 -0.681261062622070312 1.84974145889282227 204 203 204
6.53997611999511719 -0.681240439414978027 1.84954833984375 204 203 204
6.54093265533447266 -0.68121790885925293 1.84933698177337646 203 202 203
6.54188871383666992 -0.681194782257080078 1.84912014007568359 203 202 203
6.54284477233886719 -0.681171655654907227 1.84890329837799072 202 201 202
6.54380083084106445 -0.681148529052734375 1.84868645668029785 201 200 201
6.54475688934326172 -0.68112492561340332 1.84846556186676025 202 201 202
6.54571151733398438 -0.681100606918334961 1.84823787212371826 213 212 213
6.54666662216186523 -0.681076347827911377 1.84801006317138672 251 251 251
6.54762172698974609 -0.681052029132843018 1.84778225421905518 255 255 255
6.54857683181762695 -0.68102729320526123 1.84755051136016846 255 255 255
6.54953145980834961 -0.681002259254455566 1.84731566905975342 255 255 255
6.55048990249633789 -0.680978953838348389 1.84709751605987549 255 255 255
6.55144882202148438 -0.680955708026885986 1.84687948226928711 255 255 255
6.55240821838378906 -0.680932402610778809 1.84666109085083008 255 255 255
6.55337142944335938 -0.680911064147949219 1.84646129608154297 255 255 255
6.5543370246887207 -0.680890917778015137 1.84627258777618408 255 255 255
6.55530214309692383 -0.680870354175567627 1.84607946872711182 255 255 255
6.55626773834228516 -0.680849730968475342 1.84588623046875 255 255 255
6.55723333358764648 -0.680829107761383057 1.84569299221038818 255 255 255
6.55819988250732422 -0.680808782577514648 1.84550237655639648 255 255 255
6.55916833877563477 -0.680789172649383545 1.84531855583190918 255 255 255
6.56013679504394531 -0.680769562721252441 1.84513473510742188 255 255 255
6.56110572814941406 -0.680749893188476562 1.84495079517364502 255 255 255
6.56207466125488281 -0.680730283260345459 1.84476685523986816 255 255 255
6.56304550170898438 -0.680711567401885986 1.84459149837493896 255 255 255
6.56401729583740234 -0.680693149566650391 1.84441900253295898 255 255 255
6.56499147415161133 -0.680675804615020752 1.84425640106201172 255 255 255
6.56595420837402344 -0.680651962757110596 1.8440326452255249 255 255 255
6.56691741943359375 -0.680628359317779541 1.84381186962127686 255 255 255
6.56788110733032227 -0.680604875087738037 1.84359145164489746 255 255 255
6.56884527206420898 -0.680581331253051758 1.84337091445922852 254 254 254
6.5698094367980957 -0.680557787418365479 1.84315025806427002 228 227 227
6.57076835632324219 -0.680531024932861328 1.84289944171905518 207 205 206
6.57170438766479492 -0.680490970611572266 1.84252429008483887 207 205 206
6.57264041900634766 -0.680450975894927979 1.84214913845062256 205 204 204
6.5735774040222168 -0.680410861968994141 1.8417736291885376 204 202 203
6.57451295852661133 -0.680369734764099121 1.84138786792755127 203 202 203
6.57544374465942383 -0.680325508117675781 1.84097301959991455 202 201 202
6.57636737823486328 -0.680276930332183838 1.84051811695098877 202 201 202
6.57726955413818359 -0.680215299129486084 1.83994042873382568 203 202 203
6.57817173004150391 -0.680153608322143555 1.83936214447021484 203 201 202
6.57907295227050781 -0.680090427398681641 1.83877038955688477 202 200 202
6.57995891571044922 -0.680017948150634766 1.83809053897857666 202 201 202
6.58084535598754883 -0.679945290088653564 1.8374100923538208 201 200 201
6.58167839050292969 -0.679840564727783203 1.83642864227294922 201 200 201
6.58247661590576172 -0.679714322090148926 1.83524525165557861 202 200 201
6.58323955535888672 -0.679565906524658203 1.83385443687438965 200 199 200
6.58400344848632812 -0.679417192935943604 1.83246076107025146 200 199 200
6.5798487663269043 -0.676324129104614258 1.80347228050231934 200 199 200
6.58063697814941406 -0.676174521446228027 1.8020704984664917 199 198 199
6.58144569396972656 -0.676035761833190918 1.80076980590820312 199 198 199
6.58230018615722656 -0.675923764705657959 1.7997201681137085 201 199 200
6.58320856094360352 -0.675843477249145508 1.79896759986877441 200 199 200
6.58411788940429688 -0.675763070583343506 1.79821407794952393 200 199 200
6.58502864837646484 -0.675682544708251953 1.79745972156524658 201 200 201
6.5859837532043457 -0.675629198551177979 1.79695963859558105 200 198 199
6.58694744110107422 -0.675580143928527832 1.79649984836578369 199 198 199
6.58791112899780273 -0.67553102970123291 1.79603981971740723 200 198 199
6.58887577056884766 -0.675481915473937988 1.79557943344116211 199 198 198
6.58984231948852539 -0.675433754920959473 1.7951282262802124 198 197 198
6.59081220626831055 -0.675387203693389893 1.79469180107116699 200 198 199
6.59178304672241211 -0.675340652465820312 1.79425501823425293 199 198 199
6.59275436401367188 -0.675293982028961182 1.79381799697875977 199 198 199
6.59372615814208984 -0.675247311592102051 1.7933807373046875 201 200 201
6.59467411041259766 -0.675184786319732666 1.79279470443725586 201 200 201
6.59552574157714844 -0.675059616565704346 1.79162156581878662 202 200 201
6.59637880325317383 -0.674934267997741699 1.79044651985168457 203 202 203
6.59717988967895508 -0.674773693084716797 1.78894186019897461 203 202 203
6.59781646728515625 -0.67450404167175293 1.7864147424697876 204 203 204
6.50025367736816406 -0.682394027709960938 1.85098004341125488 255 255 255
6.50126218795776367 -0.682397246360778809 1.85101032257080078 255 255 255
6.50227022171020508 -0.682400405406951904 1.85104060173034668 255 255 255
6.50327873229980469 -0.682403743267059326 1.85107183456420898 255 255 255
6.50428867340087891 -0.682407736778259277 1.85110962390899658 255 255 255
6.50529813766479492 -0.682411730289459229 1.85114717483520508 255 255 255
6.50630855560302734 -0.68241584300994873 1.85118639469146729 255 255 255
6.50731849670410156 -0.682420134544372559 1.8512265682220459 255 255 255
6.50832891464233398 -0.682424366474151611 1.85126650333404541 255 255 255
6.5093388557434082 -0.682428598403930664 1.85130655765533447 255 255 255
6.51034927368164062 -0.682432830333709717 1.85134649276733398 255 255 255
6.51135873794555664 -0.682437002658843994 1.85138583183288574 255 255 255
6.51236677169799805 -0.682440400123596191 1.851418137550354 255 255 255
6.51337385177612305 -0.682443380355834961 1.85144639015197754 255 255 255
6.51438140869140625 -0.682446420192718506 1.85147488117218018 255 255 255
6.51538848876953125 -0.682449519634246826 1.85150396823883057 255 255 255
6.51639366149902344 -0.682451844215393066 1.85152626037597656 255 255 255
6.5173945426940918 -0.682452023029327393 1.85152792930603027 255 255 255
6.51839590072631836 -0.682452499866485596 1.85153234004974365 255 255 255
6.51939725875854492 -0.682452976703643799 1.85153675079345703 255 255 255
6.52039861679077148 -0.682453453540802002 1.85154104232788086 255 255 255
6.52139472961425781 -0.682451307773590088 1.85152113437652588 255 255 255
6.52238750457763672 -0.682448029518127441 1.85148978233337402 255 255 255
6.52338075637817383 -0.68244469165802002 1.85145843029022217 228 228 228
6.5243687629699707 -0.682438969612121582 1.85140419006347656 206 204 205
6.52535533905029297 -0.682432293891906738 1.85134148597717285 206 204 205
6.52633953094482422 -0.682424724102020264 1.85126996040344238 204 203 204
6.52731990814208984 -0.682415127754211426 1.85117971897125244 204 202 203
6.52830028533935547 -0.682405591011047363 1.85108935832977295 202 201 202
6.52928066253662109 -0.682395994663238525 1.85099887847900391 202 201 202
6.53026103973388672 -0.682386398315429688 1.85090851783752441 204 203 204
6.53124189376831055 -0.682376861572265625 1.85081815719604492 205 204 205
6.53222274780273438 -0.682367265224456787 1.85072767734527588 204 202 204
6.5332036018371582 -0.682357668876647949 1.85063731670379639 204 202 203
6.53418445587158203 -0.682348132133483887 1.85054695606231689 204 203 204
6.53516197204589844 -0.682336568832397461 1.85043799877166748 203 202 202
6.53612470626831055 -0.682317793369293213 1.85026073455810547 203 202 203
6.53708600997924805 -0.682298421859741211 1.85007774829864502 204 203 204
6.53804779052734375 -0.682279050350189209 1.84989476203918457 203 202 203
6.53901004791259766 -0.682259678840637207 1.84971165657043457 204 203 204
6.53996992111206055 -0.682239115238189697 1.84951770305633545 205 204 205
6.54092502593994141 -0.682216167449951172 1.84930121898651123 205 204 205
6.54188108444213867 -0.682193219661712646 1.84908473491668701 205 203 204
6.54283714294433594 -0.682170271873474121 1.84886813163757324 201 200 201
6.54379367828369141 -0.682147324085235596 1.84865140914916992 201 200 201
6.54474925994873047 -0.682123839855194092 1.84842967987060547 202 201 202
6.54570388793945312 -0.682099759578704834 1.84820258617401123 212 211 212
6.54665899276733398 -0.682075679302215576 1.84797477722167969 251 251 251
6.54761457443237305 -0.682051539421081543 1.84774696826934814 255 255 255
6.54857063293457031 -0.682027339935302734 1.8475186824798584 255 255 255
6.54952669143676758 -0.682003259658813477 1.84729158878326416 255 255 255
6.55048513412475586 -0.6819801926612854 1.84707343578338623 255 255 255
6.55144405364990234 -0.681957066059112549 1.84685516357421875 255 255 255
6.55240297317504883 -0.681933939456939697 1.84663677215576172 255 255 255
6.55336809158325195 -0.681913614273071289 1.84644520282745361 255 255 255
6.55433416366577148 -0.68189394474029541 1.84625911712646484 255 255 255
6.55530118942260742 -0.681874275207519531 1.84607398509979248 255 255 255
6.55626726150512695 -0.681854128837585449 1.84588384628295898 255 255 255
