ply
format ascii 1.0
element vertex 653
property float x
property float y
property float z
property uchar red
property uchar green
property uchar blue
end_header
6.06612634658813477 -0.655014336109161377 2.14693355560302734 253 253 253
6.06719732284545898 -0.654815018177032471 2.1457209587097168 23 23 23
6.06509256362915039 -0.655961811542510986 2.14800071716308594 255 255 255
6.06616926193237305 -0.655758678913116455 2.1467595100402832 253 253 253
6.06723880767822266 -0.655560791492462158 2.14555144309997559 28 28 28
6.06514358520507812 -0.656699717044830322 2.14779138565063477 255 255 255
6.06621170043945312 -0.656503021717071533 2.14658522605895996 253 253 253
6.06728219985961914 -0.656306087970733643 2.14537692070007324 20 20 20
6.06386041641235352 -0.657811939716339111 2.14988899230957031 255 255 255
6.0651860237121582 -0.657443583011627197 2.14761757850646973 255 255 255
6.06625461578369141 -0.657248079776763916 2.14641094207763672 253 253 253
6.06732463836669922 -0.657052099704742432 2.1452031135559082 22 22 22
6.06392097473144531 -0.658542454242706299 2.14964127540588379 254 254 254
6.06522846221923828 -0.658187687397003174 2.14744377136230469 255 255 255
6.06629753112792969 -0.657992899417877197 2.14623665809631348 253 253 253
6.06734132766723633 -0.657815277576446533 2.14513611793518066 24 24 24
6.0639801025390625 -0.659273922443389893 2.14939737319946289 255 255 255
6.06527137756347656 -0.658932030200958252 2.14726972579956055 255 255 255
6.06632852554321289 -0.658745825290679932 2.14610981941223145 253 253 253
6.06735754013061523 -0.658578693866729736 2.14506912231445312 16 16 16
6.06403970718383789 -0.660005867481231689 2.14915323257446289 254 254 254
6.06531381607055664 -0.659677088260650635 2.14709568023681641 255 255 255
6.0663447380065918 -0.659508764743804932 2.14604306221008301 253 253 253
6.06737422943115234 -0.659342348575592041 2.14500212669372559 19 19 19
6.0641021728515625 -0.660736143589019775 2.14889693260192871 254 254 254
6.06534147262573242 -0.660431444644927979 2.14698147773742676 255 255 255
6.06636142730712891 -0.66027146577835083 2.14597630500793457 253 253 253
6.06739044189453125 -0.660105764865875244 2.14493536949157715 24 24 24
6.06418561935424805 -0.661453068256378174 2.14855432510375977 255 255 255
6.06538486480712891 -0.661176025867462158 2.1468043327331543 255 255 255
6.06640863418579102 -0.661014378070831299 2.1457831859588623 253 253 253
6.0674281120300293 -0.66085582971572876 2.14478254318237305 17 17 17
6.0642695426940918 -0.662170708179473877 2.14821124076843262 255 255 255
6.06540584564208984 -0.661935389041900635 2.14671826362609863 255 255 255
6.06645774841308594 -0.661756813526153564 2.1455838680267334 253 253 253
6.06747722625732422 -0.66159898042678833 2.14458274841308594 21 21 21
6.06431436538696289 -0.662913620471954346 2.14802789688110352 255 255 255
6.06542730331420898 -0.662694752216339111 2.14663219451904297 255 255 255
6.06650638580322266 -0.66249924898147583 2.14538431167602539 253 253 253
6.06752681732177734 -0.6623421311378479 2.14438271522521973 28 28 28
6.06307029724121094 -0.663988173007965088 2.14996814727783203 253 253 253
6.06433486938476562 -0.663672029972076416 2.14794206619262695 255 255 255
6.06544828414916992 -0.663454353809356689 2.1465461254119873 255 255 255
6.06655550003051758 -0.663241922855377197 2.14518475532531738 253 253 253
6.06757593154907227 -0.663085758686065674 2.14418292045593262 20 20 20
6.06315374374389648 -0.664705574512481689 2.14962625503540039 254 254 254
6.06435585021972656 -0.664430677890777588 2.14785623550415039 255 255 255
6.06546926498413086 -0.664213955402374268 2.14646005630493164 255 255 255
6.06658649444580078 -0.663996517658233643 2.14505910873413086 253 253 253
6.06762504577636719 -0.663829386234283447 2.1439826488494873 29 29 29
6.06322813034057617 -0.66542893648147583 2.14932012557983398 255 255 255
6.0643768310546875 -0.665189564228057861 2.14777016639709473 255 255 255
6.0654902458190918 -0.664974033832550049 2.14637374877929688 255 255 255
6.06660747528076172 -0.66475754976272583 2.14497256278991699 253 253 253
6.06767463684082031 -0.664573729038238525 2.14378261566162109 34 34 34
6.06329631805419922 -0.666156589984893799 2.14903879165649414 255 255 255
6.06441497802734375 -0.665937721729278564 2.14761447906494141 255 255 255
6.06552410125732422 -0.665726006031036377 2.14623641967773438 255 255 255
6.06663656234741211 -0.665513336658477783 2.14485383033752441 253 253 253
6.06770658493041992 -0.665328562259674072 2.14365124702453613 29 29 29
6.06334447860717773 -0.666897356510162354 2.14883995056152344 255 255 255
6.06446075439453125 -0.666681349277496338 2.14742755889892578 255 255 255
6.06556987762451172 -0.666470587253570557 2.14604902267456055 255 255 255
6.06668281555175781 -0.666258871555328369 2.14466571807861328 253 253 253
6.06774806976318359 -0.666078150272369385 2.14348268508911133 31 31 31
6.06338596343994141 -0.667643129825592041 2.14867091178894043 255 255 255
6.06450557708740234 -0.667425692081451416 2.14724230766296387 255 255 255
6.06561565399169922 -0.667215645313262939 2.14586138725280762 255 255 255
6.06672906875610352 -0.66700512170791626 2.14447760581970215 253 253 253
6.06779098510742188 -0.666827261447906494 2.14330887794494629 31 31 31
6.06342697143554688 -0.668388903141021729 2.14850163459777832 255 255 255
6.06454706192016602 -0.66817241907119751 2.14707255363464355 255 255 255
6.06566143035888672 -0.667960703372955322 2.14567375183105469 255 255 255
6.06676292419433594 -0.667758762836456299 2.14433979988098145 253 253 253
6.06782102584838867 -0.667584240436553955 2.14318728446960449 26 26 26
6.06346797943115234 -0.669134914875030518 2.14833259582519531 255 255 255
6.06458854675292969 -0.668919384479522705 2.14690303802490234 255 255 255
6.06570768356323242 -0.668705999851226807 2.14548587799072266 255 255 255
6.06679248809814453 -0.668515264987945557 2.14421868324279785 253 253 253
6.06785106658935547 -0.668341457843780518 2.1430656909942627 26 26 26
6.06350898742675781 -0.66988140344619751 2.1481633186340332 255 255 255
6.06463003158569336 -0.669667065143585205 2.14673328399658203 255 255 255
6.06575298309326172 -0.669452250003814697 2.14529991149902344 255 255 255
6.06682252883911133 -0.669272005558013916 2.14409708976745605 253 253 253
6.06788063049316406 -0.669099152088165283 2.1429440975189209 28 28 28
6.06355047225952148 -0.670627892017364502 2.14799404144287109 255 255 255
6.06467199325561523 -0.6704140305519104 2.1465604305267334 255 255 255
6.06579828262329102 -0.670198738574981689 2.14511561393737793 255 255 255
6.06685209274291992 -0.670028746128082275 2.14397573471069336 253 253 253
6.06791067123413086 -0.669856846332550049 2.1428225040435791 24 24 24
6.06359529495239258 -0.67137223482131958 2.14780926704406738 255 255 255
6.06471967697143555 -0.671157896518707275 2.14636373519897461 255 255 255
6.06583118438720703 -0.670952856540679932 2.14498066902160645 255 255 255
6.06688499450683594 -0.670784056186676025 2.14384245872497559 253 253 253
6.06794071197509766 -0.670614778995513916 2.1427009105682373 26 26 26
6.06234550476074219 -0.672435343265533447 2.1497797966003418 252 252 252
6.06364297866821289 -0.672115623950958252 2.1476128101348877 255 255 255
6.06476783752441406 -0.671902239322662354 2.14616680145263672 255 255 255
6.06586408615112305 -0.671707212924957275 2.14484548568725586 255 255 255
6.06691789627075195 -0.671539366245269775 2.143707275390625 253 253 253
6.06797361373901367 -0.671371042728424072 2.14256691932678223 24 24 24
6.06244850158691406 -0.673143446445465088 2.14935469627380371 253 253 253
6.0636906623840332 -0.672859013080596924 2.14741635322570801 255 255 255
6.06481599807739258 -0.672646582126617432 2.14596986770629883 255 255 255
6.06589698791503906 -0.672461807727813721 2.14471054077148438 255 255 255
6.06695127487182617 -0.672294676303863525 2.14357185363769531 253 253 253
6.06800699234008789 -0.672127306461334229 2.14243125915527344 27 27 27
6.06249475479125977 -0.673886358737945557 2.14916467666625977 254 254 254
6.06373834609985352 -0.673602640628814697 2.14721989631652832 255 255 255
6.06486415863037109 -0.673391163349151611 2.14577269554138184 255 255 255
6.06593036651611328 -0.673216402530670166 2.14457535743713379 255 255 255
6.06698465347290039 -0.673050224781036377 2.14343643188476562 253 253 253
6.06805181503295898 -0.672876894474029541 2.14224934577941895 26 26 26
6.0625309944152832 -0.674635469913482666 2.14901423454284668 255 255 255
6.06378602981567383 -0.674346506595611572 2.14702343940734863 255 255 255
6.06491184234619141 -0.674136459827423096 2.14557647705078125 255 255 255
6.0659632682800293 -0.673971474170684814 2.1444404125213623 255 255 255
6.06701993942260742 -0.673804581165313721 2.14329123497009277 252 252 252
6.0681004524230957 -0.673624336719512939 2.14205121994018555 24 24 24
6.06256723403930664 -0.675385057926177979 2.14886379241943359 255 255 255
6.06383419036865234 -0.67509084939956665 2.14682674407958984 255 255 255
6.06494474411010742 -0.674890816211700439 2.14544153213500977 255 255 255
6.06599617004394531 -0.674726784229278564 2.14430522918701172 255 255 255
6.06706857681274414 -0.674551546573638916 2.14309334754943848 252 252 252
6.06812429428100586 -0.674387276172637939 2.14195513725280762 33 33 33
6.06260395050048828 -0.676134645938873291 2.14871335029602051 255 255 255
6.06388187408447266 -0.67583543062210083 2.14663004875183105 255 255 255
6.06497764587402344 -0.675645411014556885 2.14530658721923828 255 255 255
6.06603813171386719 -0.67547684907913208 2.1441340446472168 255 255 255
6.06711721420288086 -0.675298750400543213 2.14289546012878418 252 252 252
6.06814098358154297 -0.675154030323028564 2.14188742637634277 30 30 30
6.0626530647277832 -0.676877081394195557 2.14851093292236328 255 255 255
6.06392431259155273 -0.676583349704742432 2.14645504951477051 255 255 255
6.06501054763793945 -0.67640000581741333 2.1451716423034668 255 255 255
6.0660862922668457 -0.676223576068878174 2.1439366340637207 255 255 255
6.06716585159301758 -0.676046431064605713 2.14269757270812988 252 252 252
6.06815767288208008 -0.675921022891998291 2.14181947708129883 27 27 27
6.06272363662719727 -0.677607357501983643 2.14821958541870117 255 255 255
6.06396102905273438 -0.677335083484649658 2.14630389213562012 255 255 255
6.06505870819091797 -0.677146255970001221 2.14497494697570801 255 255 255
6.06613492965698242 -0.676970541477203369 2.14373898506164551 255 255 255
6.0672144889831543 -0.676794350147247314 2.14249944686889648 252 252 252
6.06817436218261719 -0.676688253879547119 2.14175176620483398 33 33 33
6.06279420852661133 -0.678338110446929932 2.14792823791503906 255 255 255
6.0640110969543457 -0.678079187870025635 2.14609718322753906 255 255 255
6.06510639190673828 -0.677892506122589111 2.14477777481079102 255 255 255
6.06618309020996094 -0.677717745304107666 2.14354157447814941 255 255 255
6.06723546981811523 -0.677558243274688721 2.14241337776184082 252 252 252
6.0681910514831543 -0.677455246448516846 2.14168405532836914 30 30 30
6.06286478042602539 -0.679068863391876221 2.14763689041137695 255 255 255
6.06403779983520508 -0.678837120532989502 2.14598774909973145 255 255 255
6.0651545524597168 -0.678639233112335205 2.14458060264587402 255 255 255
6.06623125076293945 -0.678465425968170166 2.14334392547607422 255 255 255
6.06725215911865234 -0.678324997425079346 2.14234566688537598 253 253 253
6.06820774078369141 -0.678222477436065674 2.1416163444519043 30 30 30
6.06159257888793945 -0.68013077974319458 2.14970707893371582 254 254 254
6.06293249130249023 -0.679802238941192627 2.14735674858093262 255 255 255
6.06406450271606445 -0.679595291614532471 2.14587807655334473 255 255 255
6.06519985198974609 -0.679388105869293213 2.1443946361541748 255 255 255
6.06627988815307617 -0.679213345050811768 2.14314603805541992 255 255 255
6.06726884841918945 -0.679091989994049072 2.14227795600891113 252 252 252
6.06822443008422852 -0.678989946842193604 2.14154839515686035 31 31 31
6.06167125701904297 -0.680856287479400635 2.1493828296661377 254 254 254
6.06295919418334961 -0.680559456348419189 2.1472475528717041 255 255 255
6.06409120559692383 -0.680353701114654541 2.14576840400695801 255 255 255
6.06522703170776367 -0.680147469043731689 2.14428472518920898 255 255 255
6.06632804870605469 -0.679961502552032471 2.14294815063476562 255 255 255
6.06728553771972656 -0.679858982563018799 2.14221024513244629 253 253 253
6.06824111938476562 -0.679757416248321533 2.14148068428039551 30 30 30
6.06176900863647461 -0.681570827960968018 2.14897680282592773 254 254 254
6.06299352645874023 -0.681312143802642822 2.14710545539855957 255 255 255
6.06412267684936523 -0.681109488010406494 2.14563965797424316 255 255 255
6.06525468826293945 -0.680906116962432861 2.14416980743408203 255 255 255
6.06634712219238281 -0.680726587772369385 2.14287161827087402 255 255 255
6.06730175018310547 -0.680625736713409424 2.14214253425598145 253 253 253
6.06825780868530273 -0.680524885654449463 2.14141297340393066 29 29 29
6.06182384490966797 -0.682311356067657471 2.14875102043151855 254 254 254
6.06307601928710938 -0.68203812837600708 2.14676499366760254 255 255 255
6.06420564651489258 -0.681836426258087158 2.14529824256896973 255 255 255
6.065338134765625 -0.681634247303009033 2.14382743835449219 255 255 255
6.06636333465576172 -0.681493580341339111 2.14280581474304199 255 255 255
6.06732606887817383 -0.681389153003692627 2.14204502105712891 252 252 252
6.06828165054321289 -0.681288778781890869 2.14131617546081543 30 30 30
6.06183671951293945 -0.683075249195098877 2.14869809150695801 254 254 254
6.06315851211547852 -0.682764351367950439 2.14642453193664551 255 255 255
6.06428861618041992 -0.682563602924346924 2.14495682716369629 255 255 255
6.06537914276123047 -0.682386457920074463 2.1436610221862793 255 255 255
6.06636953353881836 -0.682265818119049072 2.14277839660644531 255 255 255
6.06735038757324219 -0.682151854038238525 2.14194512367248535 252 252 252
6.06830596923828125 -0.682052195072174072 2.14121627807617188 31 31 31
6.06184911727905273 -0.683839380741119385 2.14864492416381836 255 255 255
6.06323480606079102 -0.683494627475738525 2.14610981941223145 255 255 255
6.06437158584594727 -0.683291494846343994 2.14461493492126465 255 255 255
6.06538534164428711 -0.683157980442047119 2.14363384246826172 255 255 255
6.0663762092590332 -0.683038055896759033 2.14275121688842773 255 255 255
6.06736946105957031 -0.682917654514312744 2.14186668395996094 252 252 252
6.06833076477050781 -0.682815611362457275 2.14111638069152832 28 28 28
6.06186866760253906 -0.684600174427032471 2.14856505393981934 255 255 255
6.0632476806640625 -0.684261143207550049 2.1460564136505127 255 255 255
6.06440258026123047 -0.684048950672149658 2.14448809623718262 255 255 255
6.06539201736450195 -0.683929741382598877 2.14360666275024414 255 255 255
6.06638288497924805 -0.683810532093048096 2.14272403717041016 255 255 255
6.06737613677978516 -0.683690845966339111 2.14183926582336426 252 252 252
6.06835508346557617 -0.683579504489898682 2.14101648330688477 33 33 33
6.06196689605712891 -0.685317099094390869 2.14815878868103027 255 255 255
6.06332206726074219 -0.684993088245391846 2.14574885368347168 255 255 255
6.0644221305847168 -0.684812843799591064 2.14440774917602539 255 255 255
6.0653986930847168 -0.684701502323150635 2.14357948303222656 255 255 255
6.06638956069946289 -0.684582769870758057 2.14269685745239258 255 255 255
6.0673828125 -0.684463798999786377 2.14181208610534668 252 252 252
6.06837749481201172 -0.684344828128814697 2.14092636108398438 31 31 31
6.06206512451171875 -0.686034500598907471 2.14775228500366211 255 255 255
6.06340503692626953 -0.685720980167388916 2.14540719985961914 255 255 255
6.06447410583496094 -0.685558617115020752 2.14419293403625488 255 255 255
6.06544208526611328 -0.68545299768447876 2.1434013843536377 255 255 255
6.06641101837158203 -0.685346901416778564 2.1426088809967041 255 255 255
6.06738948822021484 -0.685236752033233643 2.1417849063873291 252 252 252
6.06838417053222656 -0.685118496417999268 2.1408989429473877 29 29 29
6.06081199645996094 -0.687071859836578369 2.1497490406036377 254 254 254
6.06216335296630859 -0.686752378940582275 2.14734554290771484 255 255 255
6.06342267990112305 -0.686485111713409424 2.14533352851867676 255 255 255
6.06451034545898438 -0.6863136887550354 2.1440434455871582 255 255 255
6.06549453735351562 -0.686199724674224854 2.14318609237670898 255 255 255
6.06646394729614258 -0.686094343662261963 2.14239335060119629 254 254 254
6.06743526458740234 -0.685988724231719971 2.14159893989562988 252 252 252
6.06840753555297852 -0.685883104801177979 2.14080381393432617 34 34 34
6.06090259552001953 -0.687792837619781494 2.14937233924865723 255 255 255
6.06226158142089844 -0.687471210956573486 2.14693808555603027 255 255 255
6.06344079971313477 -0.687249481678009033 2.14525985717773438 255 255 255
6.06452846527099609 -0.687079012393951416 2.14396977424621582 255 255 255
6.06554698944091797 -0.686947166919708252 2.14297080039978027 255 255 255
6.06651687622070312 -0.686842262744903564 2.14217782020568848 255 255 255
6.06748819351196289 -0.686737358570098877 2.14138293266296387 252 252 252
6.06846094131469727 -0.686632215976715088 2.14058756828308105 30 30 30
6.06097269058227539 -0.688525497913360596 2.14908146858215332 255 255 255
6.06235980987548828 -0.688190281391143799 2.1465306282043457 255 255 255
6.06345844268798828 -0.688013851642608643 2.14518642425537109 255 255 255
6.06454658508300781 -0.687844336032867432 2.14389586448669434 255 255 255
6.06559991836547852 -0.68769460916519165 2.14275527000427246 255 255 255
6.06656932830810547 -0.687590181827545166 2.14196205139160156 255 255 255
6.06754112243652344 -0.687485754489898682 2.14116692543029785 252 252 252
6.0684967041015625 -0.687390625476837158 2.1404426097869873 31 31 31
6.06104278564453125 -0.689258396625518799 2.14879059791564941 255 255 255
6.06239175796508789 -0.688946306705474854 2.14639925956726074 255 255 255
6.0634760856628418 -0.688778221607208252 2.14511275291442871 255 255 255
6.06456422805786133 -0.688609659671783447 2.14382219314575195 255 255 255
6.06565237045288086 -0.68844228982925415 2.14253997802734375 255 255 255
6.06662225723266602 -0.688338577747344971 2.14174628257751465 255 255 255
6.06759452819824219 -0.688234865665435791 2.14095067977905273 252 252 252
6.0684971809387207 -0.688168108463287354 2.14044070243835449 33 33 33
6.06111288070678711 -0.689992249011993408 2.1484992504119873 255 255 255
6.06240940093994141 -0.689709961414337158 2.14632558822631836 255 255 255
6.06349420547485352 -0.689543068408966064 2.14503908157348633 255 255 255
6.06458234786987305 -0.689375460147857666 2.14374828338623047 255 255 255
6.0656733512878418 -0.689207375049591064 2.14245414733886719 255 255 255
6.06667518615722656 -0.689087450504302979 2.14153027534484863 255 255 255
6.06759977340698242 -0.689009249210357666 2.14092803001403809 252 252 252
6.06849765777587891 -0.68894582986831665 2.14043879508972168 33 33 33
6.06118679046630859 -0.690724194049835205 2.14819216728210449 255 255 255
6.06242704391479492 -0.690473616123199463 2.14625215530395508 255 255 255
6.06351184844970703 -0.690307676792144775 2.14496541023254395 255 255 255
6.06459999084472656 -0.690141022205352783 2.14367437362670898 255 255 255
6.06569099426269531 -0.689974129199981689 2.1423802375793457 255 255 255
6.06670331954956055 -0.689849436283111572 2.14141511917114258 255 255 255
6.06760025024414062 -0.68978649377822876 2.14092612266540527 252 252 252
6.06849813461303711 -0.689723312854766846 2.14043664932250977 36 36 36
6.06132221221923828 -0.691423475742340088 2.1476285457611084 255 255 255
6.06247043609619141 -0.69122391939163208 2.1460726261138916 255 255 255
6.06355476379394531 -0.691059410572052002 2.14478921890258789 255 255 255
6.06464195251464844 -0.690894186496734619 2.14350175857543945 255 255 255
6.06573152542114258 -0.690728962421417236 2.14221429824829102 255 255 255
6.0667266845703125 -0.690614044666290283 2.14131832122802734 255 255 255
6.06762361526489258 -0.690551578998565674 2.14083147048950195 252 252 252
6.06852054595947266 -0.690489113330841064 2.14034414291381836 34 34 34
6.06135654449462891 -0.692177832126617432 2.14748692512512207 255 255 255
6.06251382827758789 -0.6919746994972229 2.14589285850524902 255 255 255
6.0635981559753418 -0.691810905933380127 2.14460897445678711 255 255 255
6.06468629837036133 -0.69164663553237915 2.14332103729248047 255 255 255
6.0657658576965332 -0.691487610340118408 2.14207339286804199 255 255 255
6.06674909591674805 -0.691379845142364502 2.14122843742370605 255 255 255
6.06765127182006836 -0.691314995288848877 2.14071893692016602 252 252 252
6.06854867935180664 -0.691252768039703369 2.14023160934448242 36 36 36
6.06139039993286133 -0.692932188510894775 2.14734530448913574 255 255 255
6.06255722045898438 -0.692725241184234619 2.14571309089660645 255 255 255
6.06364202499389648 -0.692562639713287354 2.14442873001098633 255 255 255
6.06472301483154297 -0.692402899265289307 2.14316916465759277 255 255 255
6.06580018997192383 -0.69224625825881958 2.14193248748779297 255 255 255
6.06677007675170898 -0.692146122455596924 2.14114260673522949 255 255 255
6.06767892837524414 -0.692078173160552979 2.14060640335083008 252 252 252
6.06857633590698242 -0.692016422748565674 2.14011907577514648 38 38 38
6.06142473220825195 -0.693686783313751221 2.14720344543457031 255 255 255
6.06260061264038086 -0.693476259708404541 2.14553332328796387 255 255 255
6.06368207931518555 -0.693316280841827393 2.14426255226135254 255 255 255
6.06475734710693359 -0.693160831928253174 2.14302873611450195 255 255 255
6.06583452224731445 -0.693004906177520752 2.14179182052612305 255 255 255
6.06679105758666992 -0.692912399768829346 2.14105677604675293 255 255 255
6.0677037239074707 -0.692842781543731689 2.14050483703613281 252 252 252
6.0686039924621582 -0.692780077457427979 2.14000654220581055 34 34 34
6.06001091003417969 -0.694793999195098877 2.14987564086914062 252 252 252
6.06145906448364258 -0.694441616535186768 2.14706182479858398 255 255 255
6.06264448165893555 -0.694227755069732666 2.14535331726074219 255 255 255
6.06371641159057617 -0.694073736667633057 2.14412236213684082 255 255 255
6.06479120254516602 -0.693919241428375244 2.14288806915283203 255 255 255
6.06586885452270508 -0.693764269351959229 2.14165067672729492 255 255 255
6.06681203842163086 -0.693679153919219971 2.14097094535827637 255 255 255
6.06772470474243164 -0.693610012531280518 2.14041900634765625 252 252 252
6.06863164901733398 -0.693544209003448486 2.13989377021789551 36 36 36
6.06008243560791016 -0.695527136325836182 2.14957737922668457 251 251 251
6.06149387359619141 -0.695196211338043213 2.14691638946533203 255 255 255
6.06267738342285156 -0.694984495639801025 2.14521574974060059 255 255 255
6.06374931335449219 -0.694831430912017822 2.14398527145385742 255 255 255
6.06482458114624023 -0.694677889347076416 2.14275074005126953 255 255 255
6.0659027099609375 -0.694523870944976807 2.14151334762573242 255 255 255
6.0668330192565918 -0.694445669651031494 2.1408851146697998 255 255 255
6.06774616241455078 -0.694377005100250244 2.14033293724060059 252 252 252
6.06865930557250977 -0.694308340549468994 2.13978123664855957 34 34 34
6.06014680862426758 -0.696264564990997314 2.14930820465087891 252 252 252
6.06156396865844727 -0.695932686328887939 2.14662480354309082 255 255 255
6.06270313262939453 -0.695745527744293213 2.1451103687286377 255 255 255
6.06377506256103516 -0.695593416690826416 2.14387941360473633 255 255 255
6.0648503303527832 -0.695440590381622314 2.14264488220214844 255 255 255
6.06592178344726562 -0.695291101932525635 2.14143514633178711 255 255 255
6.06686162948608398 -0.695208609104156494 2.14076709747314453 255 255 255
6.06776714324951172 -0.695144236087799072 2.14024710655212402 252 252 252
6.06868076324462891 -0.695075809955596924 2.1396944522857666 34 34 34
6.06021642684936523 -0.696999847888946533 2.1490180492401123 252 252 252
6.06161975860595703 -0.696677267551422119 2.1463925838470459 255 255 255
6.06273508071899414 -0.696503221988677979 2.14497685432434082 255 255 255
6.06380081176757812 -0.69635540246963501 2.14377379417419434 255 255 255
6.06487607955932617 -0.696203768253326416 2.14253878593444824 255 255 255
6.06593942642211914 -0.696059048175811768 2.14136242866516113 255 255 255
6.06689691543579102 -0.695968449115753174 2.14062404632568359 255 255 255
6.06780147552490234 -0.695904791355133057 2.1401066780090332 252 252 252
6.06870651245117188 -0.695841133594512939 2.13958907127380371 31 31 31
6.06028652191162109 -0.697735607624053955 2.1487274169921875 253 253 253
6.06167173385620117 -0.697424232959747314 2.14617776870727539 255 255 255
6.06277227401733398 -0.69725877046585083 2.14482259750366211 255 255 255
6.06382608413696289 -0.697117865085601807 2.14366793632507324 255 255 255
6.06489753723144531 -0.696969091892242432 2.14245057106018066 255 255 255
6.06595706939697266 -0.696827471256256104 2.14128971099853516 255 255 255
6.06693172454833984 -0.696728765964508057 2.14048075675964355 255 255 255
6.06783676147460938 -0.696665346622467041 2.13996315002441406 252 252 252
6.06874179840087891 -0.696602165699005127 2.13944554328918457 28 28 28
6.06035614013671875 -0.698471605777740479 2.1484367847442627 254 254 254
6.06172323226928711 -0.698171436786651611 2.14596271514892578 255 255 255
6.06280994415283203 -0.698014318943023682 2.1446683406829834 255 255 255
6.06385564804077148 -0.697878181934356689 2.14354610443115234 255 255 255
6.06491518020629883 -0.697736561298370361 2.14237785339355469 255 255 255
6.06597471237182617 -0.697595655918121338 2.14121699333190918 255 255 255
6.06696701049804688 -0.697488844394683838 2.14033746719360352 255 255 255
6.06787204742431641 -0.697426140308380127 2.13981986045837402 252 252 252
6.06877708435058594 -0.697363197803497314 2.13930201530456543 30 30 30
6.06042575836181641 -0.699208080768585205 2.14814591407775879 255 255 255
6.06177520751953125 -0.698919117450714111 2.14574766159057617 255 255 255
6.06284713745117188 -0.698770344257354736 2.14451384544372559 255 255 255
6.06389093399047852 -0.698636114597320557 2.14340114593505859 255 255 255
6.06493282318115234 -0.698504030704498291 2.14230537414550781 255 255 255
6.06599235534667969 -0.698364078998565674 2.1411442756652832 255 255 255
6.0670018196105957 -0.698249399662017822 2.14019417762756348 255 255 255
6.06790685653686523 -0.698186933994293213 2.13967633247375488 252 252 252
6.06879997253417969 -0.698130667209625244 2.13920998573303223 28 28 28
6.06048011779785156 -0.699953138828277588 2.14792060852050781 255 255 255
6.06182718276977539 -0.699667036533355713 2.14553260803222656 255 255 255
6.06288433074951172 -0.699526607990264893 2.14435958862304688 255 255 255
6.06392097473144531 -0.699396908283233643 2.14327669143676758 255 255 255
6.0649566650390625 -0.699268639087677002 2.14220714569091797 255 255 255
6.06601047515869141 -0.699132740497589111 2.14107155799865723 255 255 255
6.06703710556030273 -0.69901043176651001 2.14005064964294434 254 254 254
6.06794214248657227 -0.698948204517364502 2.13953280448913574 252 252 252
6.06881189346313477 -0.698903858661651611 2.13916134834289551 23 23 23
6.0605311393737793 -0.70069962739944458 2.14770650863647461 255 255 255
6.06187677383422852 -0.700416386127471924 2.14532637596130371 255 255 255
6.06291818618774414 -0.70028454065322876 2.14421868324279785 255 255 255
6.06395149230957031 -0.700157463550567627 2.14315199851989746 255 255 255
6.0649871826171875 -0.700030148029327393 2.14208245277404785 255 255 255
6.06602811813354492 -0.699901163578033447 2.14099884033203125 255 255 255
6.06707191467285156 -0.699771225452423096 2.1399073600769043 254 254 254
6.06797647476196289 -0.699710190296173096 2.13939380645751953 252 252 252
6.06882381439208984 -0.699676811695098877 2.13911294937133789 27 27 27
6.06058263778686523 -0.701446354389190674 2.1474921703338623 255 255 255
6.06191396713256836 -0.701171934604644775 2.1451723575592041 255 255 255
6.06294822692871094 -0.701044619083404541 2.14409422874450684 255 255 255
6.06398153305053711 -0.700918257236480713 2.14302730560302734 255 255 255
6.0650177001953125 -0.700791895389556885 2.14195752143859863 255 255 255
6.0660557746887207 -0.700665056705474854 2.14088535308837891 255 255 255
6.06710720062255859 -0.700532495975494385 2.13976383209228516 254 254 254
6.06798839569091797 -0.70048290491104126 2.13934516906738281 252 252 252
6.06883573532104492 -0.700449764728546143 2.13906431198120117 23 23 23
6.06061744689941406 -0.702201902866363525 2.14734721183776855 255 255 255
6.06195449829101562 -0.701926529407501221 2.14500331878662109 255 255 255
6.06298398971557617 -0.701802313327789307 2.14394617080688477 255 255 255
6.06401538848876953 -0.701677858829498291 2.14288735389709473 255 255 255
6.06504964828491211 -0.701553165912628174 2.14182567596435547 255 255 255
6.0660862922668457 -0.701427996158599854 2.14076018333435059 255 255 255
6.06712627410888672 -0.701301872730255127 2.13968610763549805 254 254 254
6.06800174713134766 -0.701255381107330322 2.13929033279418945 251 251 251
6.06885290145874023 -0.701220571994781494 2.13899517059326172 17 17 17
6.06064462661743164 -0.7029610276222229 2.14723491668701172 255 255 255
6.06199979782104492 -0.702678501605987549 2.14481449127197266 255 255 255
6.06303310394287109 -0.70255357027053833 2.14374351501464844 255 255 255
6.06406450271606445 -0.702430069446563721 2.1426844596862793 255 255 255
6.06509876251220703 -0.702306091785430908 2.14162230491638184 255 255 255
6.06613540649414062 -0.702181875705718994 2.14055800437927246 255 255 255
6.06715822219848633 -0.702064573764801025 2.13955426216125488 254 254 254
6.06802463531494141 -0.702023088932037354 2.13919734954833984 251 251 251
6.06887578964233398 -0.701988518238067627 2.13890194892883301 25 25 25
6.06068801879882812 -0.703712522983551025 2.14705371856689453 255 255 255
6.0620269775390625 -0.703439772129058838 2.14470171928405762 255 255 255
6.06308221817016602 -0.703305304050445557 2.14354109764099121 255 255 255
6.06411361694335938 -0.703182518482208252 2.14248132705688477 255 255 255
6.06514835357666016 -0.703059256076812744 2.1414189338684082 255 255 255
6.06618547439575195 -0.702935516834259033 2.14035272598266602 255 255 255
6.06716680526733398 -0.7028389573097229 2.13951945304870605 254 254 254
6.06804132461547852 -0.702793657779693604 2.13912868499755859 251 251 251
6.06889867782592773 -0.702756702899932861 2.1388089656829834 20 20 20
6.0593414306640625 -0.704761803150177002 2.14945459365844727 254 254 254
6.06074428558349609 -0.704458296298980713 2.14681911468505859 255 255 255
6.06205415725708008 -0.70420151948928833 2.14458894729614258 255 255 255
6.06313085556030273 -0.704057514667510986 2.14333844184875488 255 255 255
6.0641632080078125 -0.703935444355010986 2.14227819442749023 255 255 255
6.06519842147827148 -0.703812897205352783 2.14121413230895996 255 255 255
6.06623601913452148 -0.703689873218536377 2.14014649391174316 255 255 255
6.06717538833618164 -0.703613579273223877 2.13948440551757812 254 254 254
6.06804990768432617 -0.703568518161773682 2.13909387588500977 250 250 250
6.06892156600952148 -0.703525125980377197 2.13871574401855469 18 18 18
6.05938482284545898 -0.705511868000030518 2.14927315711975098 254 254 254
6.06080055236816406 -0.705204308032989502 2.14658451080322266 255 255 255
6.06208133697509766 -0.704963028430938721 2.14447593688964844 255 255 255
6.06317996978759766 -0.704809725284576416 2.14313554763793945 255 255 255
6.06421232223510742 -0.704688370227813721 2.1420741081237793 255 255 255
6.06524801254272461 -0.704566299915313721 2.14100837707519531 255 255 255
6.06628608703613281 -0.704444229602813721 2.13994026184082031 255 255 255
6.0671839714050293 -0.704387962818145752 2.1394495964050293 254 254 254
6.06805849075317383 -0.70434337854385376 2.13905882835388184 250 250 250
6.06893348693847656 -0.704298555850982666 2.13866829872131348 29 29 29
6.05942821502685547 -0.706262171268463135 2.14909148216247559 254 254 254
6.06085681915283203 -0.705950558185577393 2.14634990692138672 255 255 255
6.06212282180786133 -0.705718100070953369 2.14430403709411621 255 255 255
6.06322908401489258 -0.705562174320220947 2.14293193817138672 255 255 255
6.06426239013671875 -0.705441296100616455 2.14186859130859375 255 255 255
6.06529808044433594 -0.705320179462432861 2.14080238342285156 255 255 255
6.06631898880004883 -0.705206930637359619 2.13980484008789062 255 255 255
6.06719255447387695 -0.705162584781646729 2.13941454887390137 253 253 253
6.06806707382202148 -0.705118238925933838 2.13902401924133301 250 250 250
6.06894207000732422 -0.705073654651641846 2.13863325119018555 28 28 28
6.05947160720825195 -0.707012712955474854 2.1489098072052002 254 254 254
6.0609130859375 -0.706697285175323486 2.14611506462097168 255 255 255
6.0621795654296875 -0.706466257572174072 2.14406824111938477 255 255 255
6.06327915191650391 -0.706314623355865479 2.14272499084472656 255 255 255
6.06431245803833008 -0.706194698810577393 2.14166259765625 255 255 255
6.06534814834594727 -0.706074297428131104 2.14059638977050781 255 255 255
6.06632757186889648 -0.705981075763702393 2.1397700309753418 254 254 254
6.06720113754272461 -0.705936968326568604 2.13937973976135254 250 250 250
6.06807565689086914 -0.705893099308013916 2.13898897171020508 247 247 247
6.06895065307617188 -0.705848991870880127 2.13859820365905762 32 32 32
6.05951499938964844 -0.707763731479644775 2.1487278938293457 254 254 254
6.06096935272216797 -0.707444489002227783 2.14588022232055664 255 255 255
6.06222391128540039 -0.707220852375030518 2.14388465881347656 255 255 255
6.06333017349243164 -0.707067310810089111 2.14251446723937988 255 255 255
6.06436347961425781 -0.70694810152053833 2.14145159721374512 255 255 255
6.0653996467590332 -0.706828653812408447 2.14038586616516113 255 255 255
6.06634378433227539 -0.706752121448516846 2.13970398902893066 254 254 254
6.06721639633178711 -0.706708729267120361 2.13931703567504883 251 251 251
6.06809091567993164 -0.706665098667144775 2.13892626762390137 247 247 247
6.06896591186523438 -0.706621229648590088 2.1385352611541748 35 35 35
6.0595545768737793 -0.70851665735244751 2.14856314659118652 253 253 253
6.06102609634399414 -0.708191931247711182 2.1456451416015625 254 254 254
6.06226682662963867 -0.707975924015045166 2.14370584487915039 255 255 255
6.06338071823120117 -0.707819759845733643 2.1423037052154541 255 255 255
6.06441450119018555 -0.707701504230499268 2.14124035835266113 255 255 255
6.06542682647705078 -0.707593977451324463 2.1402745246887207 255 255 255
6.06636667251586914 -0.707520067691802979 2.13960981369018555 254 254 254
6.06723451614379883 -0.70747905969619751 2.13924288749694824 251 251 251
6.06810951232910156 -0.707435667514801025 2.13885188102722168 245 245 245
6.0689845085144043 -0.707392036914825439 2.13846087455749512 42 42 42
6.05959129333496094 -0.709271252155303955 2.14840984344482422 222 222 222
6.06107187271118164 -0.708944380283355713 2.14545392990112305 230 230 230
6.06230974197387695 -0.708731472492218018 2.14352703094482422 234 234 234
6.06343173980712891 -0.708572924137115479 2.14209294319152832 232 232 232
6.06445693969726562 -0.708459198474884033 2.14106559753417969 232 232 232
6.06544876098632812 -0.708361685276031494 2.14018368721008301 234 234 234
6.06638956069946289 -0.70828777551651001 2.13951587677001953 229 229 229
6.06725740432739258 -0.708247244358062744 2.13914918899536133 223 223 223
6.06812763214111328 -0.708206236362457275 2.13877749443054199 231 231 231
6.06900262832641602 -0.708163082599639893 2.13838624954223633 56 56 56
6.05962800979614258 -0.710026085376739502 2.14825630187988281 202 202 202
6.06112527847290039 -0.709693968296051025 2.14523053169250488 214 214 214
6.06235313415527344 -0.709487259387969971 2.14334821701049805 217 217 217
6.06348276138305664 -0.709326326847076416 2.14188218116760254 216 216 216
6.06447887420654297 -0.709226667881011963 2.14097499847412109 216 216 216
6.06547069549560547 -0.709129869937896729 2.14009284973144531 218 218 218
6.06641244888305664 -0.709056198596954346 2.13942170143127441 211 211 211
6.06728076934814453 -0.709015905857086182 2.13905501365661621 201 201 201
6.06814956665039062 -0.708975613117218018 2.1386878490447998 217 217 217
6.06902122497558594 -0.708934366703033447 2.13831186294555664 46 46 46
6.05967140197753906 -0.710777819156646729 2.14807367324829102 204 204 204
6.06119394302368164 -0.710436880588531494 2.14494466781616211 215 215 215
6.062408447265625 -0.710237562656402588 2.14311766624450684 217 217 217
6.06351089477539062 -0.710089981555938721 2.14176440238952637 216 216 216
6.06450080871582031 -0.709994137287139893 2.1408843994140625 216 216 216
6.06549263000488281 -0.709898054599761963 2.14000201225280762 217 217 217
6.06643581390380859 -0.70982438325881958 2.1393272876739502 212 212 212
6.06730365753173828 -0.709784328937530518 2.13896059989929199 200 200 200
6.06817293167114258 -0.709744513034820557 2.13859343528747559 198 198 198
6.06904220581054688 -0.709704458713531494 2.13822603225708008 39 39 39
6.05973005294799805 -0.711523354053497314 2.14782953262329102 205 205 205
6.06126260757446289 -0.711180031299591064 2.14465904235839844 216 216 216
6.06247758865356445 -0.710982143878936768 2.14283084869384766 217 217 217
6.06353902816772461 -0.71085435152053833 2.14164972305297852 216 216 216
6.06452369689941406 -0.710761129856109619 2.14078903198242188 216 216 216
6.06551504135131836 -0.710666239261627197 2.13991117477416992 216 216 216
6.06645870208740234 -0.710592806339263916 2.13923311233520508 214 214 214
6.06732654571533203 -0.710552990436553955 2.13886642456054688 206 206 206
6.06819581985473633 -0.710513412952423096 2.13849902153015137 199 199 199
6.06906509399414062 -0.710473597049713135 2.13813185691833496 27 27 27
6.05978822708129883 -0.712269127368927002 2.14758515357971191 205 205 205
6.06133127212524414 -0.711923897266387939 2.14437294006347656 216 216 216
6.06250858306884766 -0.711744368076324463 2.14270138740539551 217 217 217
6.06356906890869141 -0.711618006229400635 2.1415250301361084 216 216 216
6.06455421447753906 -0.711525499820709229 2.14066433906555176 216 216 216
6.06554174423217773 -0.711432754993438721 2.1398012638092041 216 216 216
6.0664820671081543 -0.711361229419708252 2.13913655281066895 214 214 214
6.06735086441040039 -0.711321651935577393 2.13876843452453613 206 206 206
6.06822013854980469 -0.711282074451446533 2.13839960098266602 198 198 198
6.06909036636352539 -0.711242496967315674 2.1380307674407959 32 32 32
6.05984687805175781 -0.713015377521514893 2.14734077453613281 208 208 208
6.06139993667602539 -0.712668240070343018 2.14408683776855469 216 216 216
6.06253814697265625 -0.712507307529449463 2.14257955551147461 217 217 217
6.0635991096496582 -0.712381422519683838 2.14140057563781738 216 216 216
6.06458425521850586 -0.712289631366729736 2.14053940773010254 216 216 216
6.06557178497314453 -0.712197601795196533 2.13967633247375488 216 216 216
6.06650733947753906 -0.712128937244415283 2.13903355598449707 215 215 215
6.06737565994262695 -0.712089598178863525 2.13866519927978516 209 209 209
6.06824588775634766 -0.712050259113311768 2.13829636573791504 202 202 202
6.06911563873291016 -0.71201092004776001 2.13792753219604492 18 18 18
6.05993890762329102 -0.713746845722198486 2.14695549011230469 214 214 214
6.06143522262573242 -0.713427364826202393 2.14393925666809082 216 216 216
6.06256723403930664 -0.713270485401153564 2.14245772361755371 217 217 217
6.063629150390625 -0.713145315647125244 2.14127612113952637 216 216 216
6.06461477279663086 -0.713054001331329346 2.14041471481323242 216 216 216
6.06559228897094727 -0.712966978549957275 2.13959217071533203 216 216 216
6.06653213500976562 -0.712896883487701416 2.1389305591583252 215 215 215
6.06740093231201172 -0.71285778284072876 2.13856220245361328 212 212 212
6.06827116012573242 -0.712818682193756104 2.13819336891174316 203 203 203
6.06914091110229492 -0.712779581546783447 2.13782429695129395 9 9 9
6.06004190444946289 -0.714474737644195557 2.14652633666992188 216 216 216
6.06146621704101562 -0.714189112186431885 2.14381074905395508 216 216 216
6.06259679794311523 -0.714033901691436768 2.14233565330505371 217 217 217
6.0636591911315918 -0.713909447193145752 2.14115142822265625 216 216 216
6.06464481353759766 -0.713818848133087158 2.1402900218963623 216 216 216
6.06561136245727539 -0.713737308979034424 2.13951516151428223 216 216 216
6.06655740737915039 -0.71366506814956665 2.13882756233215332 215 215 215
6.06742620468139648 -0.713626444339752197 2.13845920562744141 212 212 212
6.06829643249511719 -0.713587582111358643 2.13809013366699219 203 203 203
6.06916284561157227 -0.713550150394439697 2.13773488998413086 15 15 15
6.0584564208984375 -0.715603172779083252 2.14993190765380859 210 210 210
6.06014156341552734 -0.715204298496246338 2.14610981941223145 216 216 216
6.06150150299072266 -0.714948952198028564 2.14366412162780762 216 216 216
6.06262588500976562 -0.714797556400299072 2.14221382141113281 217 217 217
6.06368923187255859 -0.71467357873916626 2.14102697372436523 216 216 216
6.06466770172119141 -0.714586794376373291 2.14019441604614258 216 216 216
6.06562995910644531 -0.714507877826690674 2.13943839073181152 216 216 216
6.06658267974853516 -0.714433252811431885 2.13872456550598145 215 215 215
6.06745147705078125 -0.714394867420196533 2.13835597038269043 212 212 212
6.06832170486450195 -0.71435624361038208 2.13798689842224121 203 203 203
6.06917953491210938 -0.714322865009307861 2.13766741752624512 11 11 11
6.05855798721313477 -0.716329395771026611 2.1495053768157959 214 214 214
6.06022834777832031 -0.715939819812774658 2.14574646949768066 216 216 216
6.06153678894042969 -0.715709030628204346 2.14351749420166016 216 216 216
6.06265544891357422 -0.715561211109161377 2.14209175109863281 217 217 217
6.06371927261352539 -0.715437948703765869 2.14090228080749512 216 216 216
6.06468677520751953 -0.715356647968292236 2.14011764526367188 216 216 216
6.06564855575561523 -0.715278208255767822 2.13936138153076172 216 216 216
6.06660795211791992 -0.715201675891876221 2.13862156867980957 215 215 215
6.06747674942016602 -0.715163528919219971 2.13825297355651855 212 212 212
6.06834697723388672 -0.715125143527984619 2.13788366317749023 203 203 203
6.06919622421264648 -0.715095818042755127 2.13760018348693848 9 9 9
6.05866003036499023 -0.717056334018707275 2.149078369140625 216 216 216
6.06031513214111328 -0.716676294803619385 2.14538264274597168 216 216 216
6.06157159805297852 -0.716469347476959229 2.14337062835693359 216 216 216
6.06268882751464844 -0.716323435306549072 2.1419522762298584 217 217 217
6.06374502182006836 -0.716204464435577393 2.14079546928405762 216 216 216
6.06470537185668945 -0.716126978397369385 2.14004063606262207 216 216 216
6.06566715240478516 -0.716049015522003174 2.13928437232971191 216 216 216
6.06663084030151367 -0.715971291065216064 2.13852691650390625 215 215 215
6.06750202178955078 -0.71593242883682251 2.13814973831176758 212 212 212
6.06836605072021484 -0.715897142887115479 2.13780593872070312 204 204 204
6.06921291351318359 -0.715869009494781494 2.13753271102905273 15 15 15
6.05875778198242188 -0.717785656452178955 2.14866900444030762 216 216 216
6.06040239334106445 -0.717413008213043213 2.1450188159942627 216 216 216
6.06160688400268555 -0.717229902744293213 2.14322400093078613 216 216 216
6.06272459030151367 -0.717084944248199463 2.14180517196655273 217 217 217
6.06376361846923828 -0.716974079608917236 2.14071869850158691 216 216 216
6.06472396850585938 -0.716897070407867432 2.13996386528015137 216 216 216
6.06568574905395508 -0.716819822788238525 2.13920736312866211 216 216 216
6.06664943695068359 -0.716742575168609619 2.13844966888427734 215 215 215
6.06752729415893555 -0.716701328754425049 2.1380465030670166 213 213 213
6.06838274002075195 -0.716669857501983643 2.13773846626281738 204 204 204
6.0692291259765625 -0.71664196252822876 2.13746547698974609 13 13 13
6.05884361267089844 -0.718520462512969971 2.14830756187438965 216 216 216
6.06048965454101562 -0.718150436878204346 2.14465475082397461 216 216 216
6.06164216995239258 -0.717990458011627197 2.14307713508605957 216 216 216
6.06275320053100586 -0.717849552631378174 2.14168596267700195 217 217 217
6.06379461288452148 -0.717738687992095947 2.14059138298034668 216 216 216
6.0647435188293457 -0.717666923999786377 2.13988327980041504 216 216 216
6.0657048225402832 -0.717590630054473877 2.1391303539276123 216 216 216
6.06666851043701172 -0.717513859272003174 2.13837265968322754 215 215 215
6.06755208969116211 -0.717470467090606689 2.13794422149658203 213 213 213
6.06839895248413086 -0.717442810535430908 2.13767123222351074 204 204 204
6.06924676895141602 -0.717414677143096924 2.13739395141601562 10 10 10
6.05888891220092773 -0.719272911548614502 2.14811801910400391 216 216 216
6.06056356430053711 -0.718893587589263916 2.14434528350830078 216 216 216
6.06167364120483398 -0.718752920627593994 2.14294576644897461 216 216 216
6.06277799606323242 -0.718615829944610596 2.14158248901367188 217 217 217
6.06382608413696289 -0.718503057956695557 2.14045977592468262 216 216 216
6.06477546691894531 -0.718431770801544189 2.13975167274475098 216 216 216
6.06572628021240234 -0.718360483646392822 2.13904190063476562 216 216 216
6.06668710708618164 -0.71828538179397583 2.13829541206359863 215 215 215
6.06756877899169922 -0.718243420124053955 2.13787698745727539 213 213 213
6.06841659545898438 -0.718215525150299072 2.13759899139404297 204 204 204
6.06926536560058594 -0.718187391757965088 2.13731908798217773 16 16 16
6.05893182754516602 -0.720027029514312744 2.14793777465820312 216 216 216
6.06059789657592773 -0.719654381275177002 2.14420175552368164 216 216 216
6.06169843673706055 -0.719518721103668213 2.14284253120422363 216 216 216
6.06280279159545898 -0.719382584095001221 2.1414790153503418 217 217 217
6.0638580322265625 -0.719267904758453369 2.14032816886901855 216 216 216
6.06480693817138672 -0.719197094440460205 2.13961982727050781 216 216 216
6.06575822830200195 -0.719126284122467041 2.13891005516052246 216 216 216
6.0667109489440918 -0.719055473804473877 2.1381990909576416 215 215 215
6.06758832931518555 -0.719015419483184814 2.13779759407043457 214 214 214
6.06843709945678711 -0.71898728609085083 2.13751721382141113 204 204 204
6.06928539276123047 -0.718959391117095947 2.1372368335723877 12 12 12
6.0589747428894043 -0.720781147480010986 2.14775776863098145 216 216 216
6.0606379508972168 -0.720412313938140869 2.14403319358825684 216 216 216
6.06172323226928711 -0.72028428316116333 2.14273929595947266 216 216 216
6.06282806396484375 -0.720149338245391846 2.14137554168701172 217 217 217
6.06388998031616211 -0.72003251314163208 2.14019656181335449 216 216 216
6.06483888626098633 -0.719962418079376221 2.13948798179626465 216 216 216
6.06579017639160156 -0.71989208459854126 2.1387779712677002 216 216 216
6.06672811508178711 -0.719827950000762939 2.13812828063964844 215 215 215
6.06762075424194336 -0.719781935214996338 2.1376640796661377 214 214 214
6.06846952438354492 -0.719754040241241455 2.13738369941711426 204 204 204
6.06931829452514648 -0.719726383686065674 2.13710331916809082 8 8 8
6.05901765823364258 -0.72153550386428833 2.14757752418518066 216 216 216
6.0606846809387207 -0.721168100833892822 2.14383816719055176 216 216 216
6.06175374984741211 -0.721047937870025635 2.14261317253112793 216 216 216
6.06285285949707031 -0.720916092395782471 2.14127182960510254 217 217 217
6.06392145156860352 -0.720797598361968994 2.14006495475769043 216 216 216
6.06487083435058594 -0.720727980136871338 2.13935613632202148 216 216 216
6.06581449508666992 -0.720661461353302002 2.13867855072021484 216 216 216
6.06673955917358398 -0.720602571964263916 2.13808012008666992 215 215 215
6.06765365600585938 -0.720548689365386963 2.13753032684326172 214 214 214
6.06850242614746094 -0.720521032810211182 2.13724994659423828 205 205 205
